VERSION .7
FIELDS x y z
SIZE 4 4 4
TYPE F F F
COUNT 1 1 1
WIDTH 752
HEIGHT 1
VIEWPOINT 0 0 0 1 0 0 0
POINTS 752
DATA ascii
0.001210522612979481 0.004173200932446893 0.003068448665102625
0.001493671111900832 0.003815729559061909 0.003249315232124478
0.001397749258112714 0.003927790663731224 0.002991098014810360
0.001579028369794807 0.003682018268365191 0.003361266939021273
0.001581708381340481 0.003534221417446028 0.003410941510749121
0.001473512298226089 0.003390513957371996 0.003498853777982021
0.001342286212816582 0.003367302727648562 0.003546333452001818
0.001310791177449994 0.003091536670732893 0.003978432617515723
0.001380768204301717 0.003061414755966898 0.003873494538600424
0.000994943555340034 0.004155746668026711 0.001669109976722752
0.001032658328587114 0.004116466275978740 0.001633823493396158
0.000917273259580727 0.004137346290222874 0.001615463134447468
0.000942464994233988 0.004101628657795941 0.001610311147941471
0.000941554231654403 0.004142235158466907 0.001650996890204712
0.000918343210732534 0.004136564237405709 0.001675445875888211
0.001182638659213267 0.003934705073594430 0.001768754268013068
0.001054750084250887 0.004003543193782484 0.001643454161735847
0.001084554574324470 0.003958472185870095 0.001716375048602741
0.001163577575039803 0.003915877350178990 0.001838049240707582
0.001040202980225053 0.003934855459406626 0.001887418903198597
0.001076375305969623 0.003917149231241619 0.001820038236495468
0.001068723490816267 0.003964859525720866 0.001791937439361032
0.001027382237021091 0.004006000564944757 0.001824030960668826
0.000961634103197633 0.004070908406518979 0.001805214805036552
0.000907712445892891 0.004136879364402107 0.001798993051833690
0.000937725403497712 0.004098046381211971 0.001842819399336975
0.000992209107120687 0.003991721250159978 0.001849776258658723
0.000927141823108291 0.004213081719343903 0.001624514191249890
0.000928476068619663 0.004306715911223255 0.001578804906277028
0.000955896554346634 0.004271362136825609 0.001613778734541583
0.000913414025377857 0.004205757601909418 0.001606495992436963
0.000845457372162216 0.004414387422362430 0.001623947081007737
0.000866931569118441 0.004411982228090894 0.001540356139535879
0.000771948384919207 0.004473056425134547 0.001458252772799017
0.000779901275456685 0.004408682870738758 0.001628502814077318
0.000844237565219468 0.004379477485460929 0.001781748138337340
0.000871147669913874 0.004394919829248000 0.001770218551180785
0.001165199733050993 0.003382568281311704 0.001971812097931015
0.001081378120144764 0.003422616187642804 0.001324752912429262
0.001226723255355741 0.003323374836290014 0.001844080504903179
0.001009853473572242 0.003369239992904093 0.001789784913904996
0.001390256526765243 0.003429368839578651 0.001905790895467682
0.001478398779117123 0.003771808143301260 0.002785672655596460
0.001555522333096778 0.003625229237500591 0.002869695741632848
0.001751139761019034 0.003683118272808627 0.002772194511469308
0.001842255590698008 0.003354361431048690 0.002932017724270454
0.001587485473215116 0.003399836991733293 0.003094282063852670
0.001320864692876931 0.003131238732837105 0.003548057432384896
0.001508174876514109 0.003272559885857336 0.003289049726870035
0.001882128050839786 0.002969056320851730 0.003033889318863224
0.002124219079555869 0.002974051789552030 0.002675897192342432
0.002139700017945122 0.003337437126209337 0.002689672169889384
0.002078955137708800 0.002906606860556907 0.002157134548093044
0.002187345435094476 0.002643964194557466 0.002395029682378632
0.002124230148123189 0.002678429560718996 0.001800083988595387
0.001602567921079405 0.001832891002202147 0.002253878847620875
0.001608869337856615 0.001372632608768005 0.001915370856886688
0.002012399407222159 0.001513844826092394 0.001316975311732952
0.001891989628473114 0.001814878641325485 0.001750184704877986
0.001952515009635091 0.003620986818089663 0.002663888803231406
0.001583360864442100 0.003441988228803753 0.001965218816753135
0.001518259897748114 0.003583351166644674 0.001973693724376511
0.001553158110445878 0.003461916144896694 0.001955711980033497
0.001225009282626258 0.003018912229084926 0.002589946088913452
0.001322811420986133 0.003325744154240113 0.002286976310573366
0.001430225971330277 0.003362410781936051 0.002239400701511857
0.001573461017750567 0.003347461617943003 0.002317973683910192
0.000859123850646849 0.002746650907521224 0.002683955842022073
0.001137650430817865 0.002992829343670925 0.002181866896990097
0.001037190684429723 0.003179366750063306 0.002268657085110083
0.000826900860739724 0.002856575740382155 0.002699362830372431
0.001293713799462120 0.003282283202573582 0.002524766981798778
0.001345792815862680 0.003361531644407917 0.002490679760928697
0.001787486571576592 0.003935491670655060 0.003014107078660163
0.001522444600747460 0.003163274266232133 0.003115458992309857
0.001975071309810231 0.004166278264648323 0.002973186224876403
0.001444429069460686 0.003679217145563993 0.003102892015054923
0.001918884830898655 0.002463874722460909 0.001538511270311642
0.001841628628711497 0.002561062618741594 0.001435460469616015
0.001898126140386133 0.002238785497837847 0.002209131963124941
0.001992841216801236 0.002099349149283767 0.001532332058038187
0.002008831360945965 0.005165424981040132 0.002519327973032877
0.001256042740164585 0.003998866629475721 0.003202661329330927
0.002009509672497068 0.003195895774232582 0.001607590367647611
0.002133745502287155 0.003428303074345232 0.002145099387528819
0.001542570915434078 0.003186926596028217 0.002048559911710706
0.001661532887713238 0.002962081093405543 0.001620458436677829
0.002388711358076326 0.003129845099699668 0.001777237582892525
0.002666318788383889 0.003496747519351790 0.002228860927528738
0.001757102864508718 0.002566688239279506 0.000312602477402189
0.001500799287830981 0.002476954119623841 0.000249738119773140
0.001605916728441056 0.002401480746579790 -0.000149458923919374
0.001818605961136788 0.002406342340552084 0.000244056604394241
0.001265711030267289 0.003841222632608782 0.001770677646253226
0.001062074635474740 0.003987260982777617 0.001673542932541529
0.001092660471617486 0.003950824088922184 0.001685019451282458
0.001258505551831306 0.003767015815387153 0.001770285664778806
0.001434045876794581 0.003602360616523990 0.001957858047961220
0.001532669650645655 0.003428299673861134 0.001982104499243088
0.001380580738340531 0.003431729906747158 0.002077641516564736
0.001346588592574573 0.003463024901179726 0.002088407782009956
0.001275115212597972 0.003363680573938832 0.002186309531519119
0.001332021531365153 0.003411767311687242 0.002241423589826531
0.001409944307061739 0.003251787395642804 0.001675466458989819
0.001655296148199832 0.003076631918612067 0.001358420830063506
0.001808144576129466 0.002541913815739126 0.000884702072500183
0.002022386516650766 0.002309411901157738 0.000999070086949640
0.002044609872206214 0.002281401004409208 0.000431762000556114
0.001686413885348668 0.002485718269556121 0.000464647584138580
0.001263086314039323 0.002295556323084600 -0.000031951843655395
0.001749570350344847 0.002239765448060335 0.000133035538894555
0.001885338868310003 0.001912180151912538 0.000777695956860584
0.001670176095550010 0.001714484870331603 0.000597959536449285
0.001326989210212018 0.001763541081579962 0.000292440952550906
0.001667166386403641 0.001938460246285854 0.000427169174123008
0.000940627822087712 0.001813976337226972 0.000182043947723230
0.000699765181275943 0.001889379815602742 0.000110460911768210
0.001058742919781937 0.002130736461682545 -0.000005616831313857
0.001322215969103424 0.002119334654419991 0.000249526740180633
0.001158245512734108 0.001446608667494541 0.003099825278270561
0.001082450109766876 0.001084302558525818 0.002746427897688450
0.001362571765803534 0.001028619306383248 0.002322136150687116
0.001404479287674676 0.001394322116208169 0.002525942287010389
0.001275906425831113 0.001512111970631074 0.000417749513527496
0.000824097161917575 0.001609731150607316 0.000177307459162226
0.001631641691120286 0.002673802382585658 0.000603709683734043
0.001679342923593626 0.002599105401367662 0.000716908709358960
0.000528330284517814 0.001517119904942674 0.000150572086899886
0.001621007227325201 0.002077276719843194 0.000216856382660474
0.002031958287248511 0.002068679768297838 0.000536851667957281
0.001448097611289876 0.002172750632785404 -0.000234502805725299
0.001558364541650345 0.002244614995199401 -0.000287604493465381
0.000807438124777272 0.004348028057216840 0.002040272130858288
0.000896766294601818 0.004271226757175459 0.001886889831176240
0.000897111855227719 0.004281173114665996 0.001874586996045635
0.000892094270600770 0.004344588392286548 0.001831511756125185
0.000885365196270762 0.004326030343353738 0.001867163116027234
0.001196439962720451 0.003910883927991200 0.001628173891230362
0.001007480423991940 0.004214133115879561 0.001619439309719208
0.001109807785179089 0.004069862402686408 0.001772030949548137
0.001260569988370348 0.003816583061870350 0.001809220203768313
0.000974625208909509 0.003972043789518986 0.001963416965876921
0.000903590952407704 0.004091740151655386 0.001952794964715412
0.000950254472493219 0.004140164737099641 0.002135427699354431
0.001047714841051806 0.004026225994928475 0.002245524202622470
0.000974297048972055 0.004041190036842402 0.001579131833225135
0.000987720325053663 0.004026276432396899 0.001603967927290270
0.000952396112289101 0.004068740862899437 0.001563582774302924
0.001317646266329155 0.003907122899705061 0.002767610490213028
0.001244505779152493 0.003865706561460894 0.002563491006186230
0.001644818572648764 0.003526394539311890 0.002106234472421168
0.001267508010594789 0.003790793593758446 0.001818431741622266
0.000932067576294386 0.003017412146246873 0.002736790561253919
0.001051389876662501 0.003049960982459572 0.002072659346292362
0.001822298461438058 0.005572457311460798 0.001568616310279337
0.001230064793971109 0.004053228421074377 0.002881180743267925
0.002992949966390224 0.003999899833950884 0.001612906803997331
0.002479337835058850 0.003323637713697645 0.001267012149745657
0.002050498022973165 0.003076165502414771 0.000873003144398855
0.002314822423686427 0.003932516418821286 0.000742575457903825
0.001766725652071207 0.002157979704455607 0.000131904058106503
0.000358149620924929 0.001981611819732410 0.000365809804649574
0.000768360233371093 0.002080327103610757 -0.000115545723628847
0.001249158868813443 0.003325509097792219 0.001665984666292890
0.001031562560557095 0.003442374150809524 0.001252440842810274
0.001453781565696908 0.003492426560694700 0.002041990131543784
0.001083477898494852 0.003853505556233805 0.001941305995210226
0.001112664375513837 0.003932166360242276 0.001880357041603197
0.001097686658646914 0.003947384964226495 0.001908615075473763
0.001059584936341141 0.003889538177562353 0.001976642610121347
0.001245318366752059 0.003751796407618092 0.002148243428716411
0.001811913061161222 0.003541141220777981 0.002428129193501705
0.002191525358896683 0.003379343824322403 0.002388696898880838
0.002134946246124416 0.003148426991454267 0.002274594962381804
0.001402436060762525 0.003310609361120362 0.002372311016153940
0.002203629544433944 0.003525113414624106 0.003228635654052819
0.002380627888829343 0.004023125172978434 0.002560167028208199
0.002753343112647709 0.005014532916206782 0.001842847511139241
0.001358775558465860 0.003316527614530134 0.002125443903899627
0.002212311604378959 0.005325531720433112 0.000620552787590711
0.001142848113995300 0.004306136134186597 0.003171062183190666
0.001124802749330770 0.004269084608217634 0.003046171258049948
0.001058924236517465 0.004437062439132462 0.003059494739880419
0.001026137424802835 0.003663181912622385 0.003274564196588209
0.000959097338954051 0.003751720456801320 0.003285810080686674
0.000985816870744936 0.003586384517059127 0.003335352870715100
0.001074188995759783 0.003524354949865974 0.003325922726059609
0.001161215317360416 0.003092330559986474 0.003982413807268159
0.001192289679330965 0.003136590433829821 0.003790654161408166
0.001219742789691766 0.001815975072317767 0.003553847271472405
0.001387603730744192 0.001820108610202030 0.002890557535415071
0.000956976732254979 0.004735932756556134 0.002919336397341123
0.000927827243671948 0.004728398297198766 0.002952957154605603
0.000937922708617795 0.004729451409798467 0.002946708217972220
0.000976939005970043 0.004717973606642596 0.002898174743373707
0.001196709244743362 0.003917867863046480 0.003186561015796031
0.001070968767448334 0.004121543458906037 0.003253067446401981
0.001001627784481515 0.004113326211218074 0.003231281755765472
0.000969550993507471 0.004071634784880665 0.003199866316789609
0.001031459163527826 0.004063738995663990 0.003182437441530705
0.001567889904471339 0.002853026439003537 0.003220443852526378
0.001640320831416859 0.002260939731196075 0.002700044040810624
0.001989109408303076 0.001551628700399537 0.001081077417380959
0.002024775153311275 0.001804855022910912 0.001352451818950519
0.001915808299429670 0.002050084595960161 0.000941136763549634
0.001075819228920122 0.002154488396637325 -0.000080920007790824
0.001159647551546079 0.001942866219796293 -0.000456443727414773
0.000328399793746204 0.002123290004714268 -0.000471859688278531
0.000681885459161255 0.002287750367435999 -0.000164076711689473
0.000973508375955385 0.002169335346702695 -0.000283313533061387
0.000713967200049931 0.002023268057504812 -0.000598930493418014
0.001267983870858081 0.002920103366804359 0.003697765796720976
0.001177972084024787 0.003028745776569662 0.003874420938100930
0.001284820752025457 0.002512019709673755 0.003717004494403293
0.001387739574115348 0.002411053505430025 0.003278015319785214
0.000922091109195938 0.004698517900572748 0.003005148087965748
0.000922103038957124 0.004657970637262089 0.003023234096066072
0.000968664644555916 0.004581406141866240 0.003059433880038389
0.000950847140490374 0.004665295847854908 0.003007873634644277
0.000997042381345714 0.004672852922563091 0.002857336739625496
0.000976501403308995 0.004679951664062449 0.002896541164868035
0.001004687782744646 0.004597028666575153 0.002942603854038429
0.000975493896541621 0.004761850995442712 0.002896546312441040
0.001001294057242943 0.004715918852140375 0.002852680429904449
0.000897932375377868 0.004774886691978886 0.002992042508340053
0.000946704781416750 0.004780360799442955 0.002959892729566192
0.000902715612029488 0.004797841072288759 0.003050580170244247
0.000934824702488756 0.004704895712344011 0.002984632421159815
0.000959996007139989 0.004677892628400678 0.002984782332912378
0.000981727255917456 0.004701524957408954 0.002883928441637545
0.000955443176241947 0.004704439967269905 0.002922915864368146
0.000907814130993517 0.004756150423268135 0.002972272901718995
0.000937656395022320 0.004746440347449766 0.002955009058021406
0.000868389267906240 0.004844437039772605 0.002656801055293871
0.000782579248462715 0.004933549215527381 0.002828616441933045
0.000810643851429663 0.004969143296955100 0.003014275349712832
0.000846721755541686 0.004908095471756514 0.003153245577294803
0.000849203882869716 0.004802738559848808 0.003129684335246795
0.000955101943378790 0.002432242666381651 0.004064131751304531
0.000931019331852000 0.001787045474626838 0.004029489164433978
0.001164870076451863 0.003587856368794204 0.000836838240088594
0.001113332551232539 0.004016701459844996 0.001427289272759575
0.001264559161861535 0.003833229363603164 0.003194038930411353
0.000941886101646270 0.004303967104035757 0.001583612132968595
0.001012427226176715 0.003982410420685823 0.001911532223652312
0.000899859776741086 0.004199012569594002 0.002023921111615781
0.000898785418249884 0.004135552817208437 0.001992725586580610
0.000976610415257003 0.004044328108077548 0.001920282617337972
0.000930807759612961 0.004161489341107698 0.001936393991130817
0.000895360672801250 0.004397115627467414 0.001494425789379126
0.000861056716047776 0.004407956486289211 0.001694972372963457
0.000738026022716242 0.004445036685277876 0.001490897746394783
0.000752449037820641 0.004410305375543506 0.001746576174474524
0.000874439485407820 0.004552493234698061 0.002072600160754162
0.000855671944223159 0.004422247763792736 0.002022727257314280
0.000819110262493989 0.004384387897289497 0.001822687510083701
0.000931418764615327 0.004134750118257790 0.001569392004927605
0.000963706871354019 0.004091898452839944 0.001591289320548647
0.000831642731158619 0.004340432899248488 0.001987660235563631
0.000856241771729808 0.004274885506522753 0.001983461944041228
0.000867445467622964 0.004262778062557584 0.001903429914357687
0.000847935719949696 0.004315877077147472 0.001869027274234643
0.000972927314519149 0.003992043304447399 0.001880242013230824
0.001105422652754958 0.003938255192687630 0.001699328334006159
0.001084843922019391 0.003930038241342533 0.001767268492453416
0.001616748866196615 0.002793901966497082 0.000962439538102259
0.001638718770663568 0.002735544214191789 0.001026064516800190
0.001919357426755085 0.002741445392493284 0.001786411501409683
0.002083360719810251 0.002724219028305763 0.001767584903484525
0.001929844624687199 0.002634026493134434 0.001546431716653656
0.001831678574615965 0.002733517515600047 0.001601764993359896
0.001732128803106697 0.003276565191071427 0.001439819952592783
0.001585371182149917 0.003401592829021517 0.001562241707912128
0.001669762687298466 0.003396176894376927 0.001711047197636035
0.001759484363197952 0.003360818573955475 0.001580288464262878
0.001737832882601558 0.003435754915487327 0.001686820968466029
0.001631048673121303 0.003354587051210400 0.001783328290425384
0.001808434291654859 0.003348234304934428 0.001745130094239807
0.001771558220814170 0.003407883304770709 0.001670860908753380
0.001465944064585868 0.003454042324034099 0.001952268957274664
0.001391540930944224 0.003414035813072063 0.001995977390546621
0.001600064196719247 0.003403482625631941 0.001797134398111911
0.001684021961677833 0.003343660511283631 0.002036576761026584
0.001666763665562153 0.003223549585360808 0.001965657651369800
0.001635434830732835 0.003354450367493315 0.001913069153603767
0.001469678894318212 0.003424400549740686 0.002022645209169218
0.002059605488383526 0.002932388771158386 0.001888392256053882
0.001972760046670919 0.003055160211900340 0.001933092632357105
0.001790819659843935 0.002697903174444562 0.001311461464893323
0.000931267064242895 0.001054941300759594 0.000031754558439220
0.001029736842805815 0.002409586723345496 -0.000843478338524402
0.002002080896457746 0.002782949593608635 0.001216173048753405
0.002115207484431533 0.002790500172648710 0.001320708752658596
0.001873195634349632 0.002807120899246390 0.001095749306711472
0.001654849912923007 0.003009029573629875 0.001040038387157554
0.001580183479150404 0.002209407986675750 0.001131615167389326
0.000572632362625370 0.002776013978451477 0.000298606911909468
0.001723608228079309 0.003376307143021777 0.001979982422212460
0.001780999450783090 0.003286506936353266 0.001984531848851085
0.001973195436447008 0.002588847322348095 0.000702621257814724
0.001786344346416972 0.002437449987131618 0.000846055420540700
0.001842268649407104 0.002789285568156095 0.000817678017231122
0.001701820541562820 0.002876950865943406 0.000876468712637293
0.001727858895417334 0.001457630055260216 0.000942271128173659
0.001212600143265603 0.002149999384424159 0.000199304507820493
0.001608674216991924 0.002252241954716733 0.000583635981401942
0.001986897436099030 0.002709370286618677 0.001655468002701459
0.001893668696859855 0.002923292750334019 0.001785423736313419
0.001848592787998866 0.002889175113541400 0.001738767595700813
0.001986170774668250 0.002759549381965491 0.001777195666036230
0.002042031485908119 0.003416918244579774 0.002125298882352367
0.001888103266833327 0.003196655837680925 0.001952505462768316
0.000915455599702599 0.004767580376119688 0.002468757515445677
0.000777628529498596 0.004761211442078966 0.002414979162655287
0.000775629542444944 0.004894662528024275 0.002621531832746485
0.000855534956380341 0.004491684054631958 0.002000375194754501
0.001049147958767756 0.003758929172895862 0.001254036763561311
0.001002744725376079 0.003151383521669533 0.002460214672532619
0.001058764581973772 0.003933680217450252 -0.001475662997235783
0.001067882291777889 0.004393894201937796 -0.000621216179447734
0.001008642079513625 0.003431179160854216 0.003846102512795686
0.001031090635744579 0.003370739646927600 0.004113987104455622
0.001091347498513471 0.004367368904685861 0.003198823492173796
0.000998457217465598 0.004317296311026872 0.003163662653032183
0.001015893084824209 0.004191195509023971 0.003226372937118292
0.001103313505862462 0.004208563627573232 0.003277082432402458
0.000888341013056341 0.004393687693935997 0.001519124921002651
0.001119474466401195 0.002020272057707556 -0.000251964056789514
0.000277965862466806 0.002147191041670898 0.000007808397761340
0.000009590050509834 0.002137486295437633 0.000638532038826821
0.000108209397524704 0.001609674535360725 0.000373101579149564
-0.000168961971807697 0.001555178905563980 0.000764373378832330
0.000994172229099200 0.004446256507784625 0.003109483836017402
0.001048114423258489 0.004475499257904109 0.003125563819985568
0.000905878500901099 0.004738764165673252 0.002967769994531282
0.001046513221346747 0.004027975157694180 0.003156479651758560
0.001008468769170782 0.004578555659498893 0.003044498691076327
0.000975956733989607 0.004649693104369579 0.002988000065579483
0.000921029819239632 0.004544335112720886 0.003038438349353452
0.000931297196745337 0.004413499295228849 0.003063378768528627
0.000897703507479702 0.004187312802895010 0.001862022928269376
0.000892080158155103 0.004203762191351122 0.001828547733356760
0.000915552992474645 0.004703119449673963 0.003038835944559325
0.000900530270984669 0.004720885800545805 0.003009719382120639
0.000861648692258029 0.004681240117630295 0.003044262481801946
0.001590410380469025 0.001141343451921681 0.001726929646776644
0.001942971133224470 0.001303038634547770 0.001144172271699473
0.000934900260012596 0.004119032960023056 0.003200722253567476
0.000904515562896630 0.004095871806620187 0.003176486833559787
0.001026956164435413 0.003136378909500046 0.001750840976416646
0.000057162169082832 0.002564195768064642 0.000491538836774365
0.000605062358041414 0.003304815220493937 0.000442454722658597
0.001830797813702107 0.003050975975013015 0.001877132035795479
0.001846608719410191 0.002924196521177746 0.001700400882121364
0.001824881692043670 0.002985185293955756 0.001764395870052248
0.001880891456207110 0.003107882728692623 0.001889364066300972
0.000871744804900251 0.001452245700249778 0.003536238455241708
0.001701889110627660 0.001393233279595699 0.000736446496250999
-0.000453715188428311 0.001733346950935840 0.001188187829187445
0.001007148079160170 0.003995136103417986 0.001622022403470702
0.001046669264462107 0.003950558809761886 0.001707676159683209
0.000923822411236419 0.004363467929148843 0.001543838836297845
0.000901240591148098 0.002509155223376575 0.000412718959849758
0.001116519295203205 0.003769332314383757 0.003271453694507685
0.001047748300254642 0.003916585861620675 0.003193136358216420
-0.000045607597051332 0.002171024588954983 0.000040881646897935
0.000904576649265437 0.002995965999827729 0.004064650244292591
0.000886894632752970 0.004625377810564048 0.003018376257683684
0.000604790348643463 0.002209905694626167 -0.000110063053771574
0.001781311108652101 0.003131639068297342 0.001709647452874917
0.001827366938954765 0.003088191764813712 0.001749397912723195
0.001819244495015863 0.002997429738411822 0.001749366805331946
0.001798104444316458 0.003024382570974009 0.001745784176994025
0.001859576234209180 0.003184828813434939 0.001800125701081995
0.001875791478264295 0.003064761879522533 0.001796810535317096
0.001858316997368469 0.003180248326258856 0.001688228921790872
0.001842461576489531 0.003267399218899785 0.001621878735718012
0.001825577377984144 0.003278737714914966 0.001848808112481370
0.001903148275628326 0.003071585060324081 0.001862750881532248
0.001852171546715463 0.003256803740058936 0.001590593826142627
0.001848702228048891 0.003298241332152032 0.001540455854965104
0.001842538710657685 0.003314985760252007 0.001588138565967554
0.001765992152035400 0.003371762865129505 0.001605072242227680
0.001863957497295885 0.003295006866624370 0.001485603494235936
0.001844826376844857 0.003316570258869785 0.001492757399552821
0.001936229057073189 0.003175132176080129 0.001464612799905198
0.001903489365077057 0.003177193161388472 0.001429234468333251
0.001931098633899304 0.003156218660533164 0.001353751825306892
0.001877500403504372 0.003207032452350956 0.001242734436739171
0.001943587040507500 0.002898082308506958 0.001866957706129414
0.001901682669710621 0.002728305183594243 0.001674726508007231
0.001976629193897811 0.003077661993929444 0.001311229589318147
0.001836795561699303 0.003099492361883470 0.001170703152523380
0.002013609430284961 0.003002298006736549 0.001318188359040094
0.001804916720263294 0.002998063792673963 0.001297018134813783
0.001984561519930757 0.003021729958958407 0.001349104855315711
0.001847084538821418 0.002929267214126437 0.001371671575679229
0.001989710906682501 0.002976618908828811 0.001394714625700958
0.001805726366352527 0.002946454526020565 0.001437036547552875
0.002015235733466285 0.002966228740334722 0.001469378205994117
0.001786150271335867 0.002882597083496551 0.001388665767899755
0.001882916777235964 0.003194482939799746 0.001481163173503336
0.001911731691565884 0.003133961417436779 0.001423100198498446
0.001716154692896134 0.003291430413248090 0.001193555897205578
0.001834849708528724 0.003283470990049741 0.001530136446493219
0.001754615883452322 0.002947419326123440 0.001734503254590210
0.001698028486107173 0.003036127813770234 0.001621880195913842
0.001740857510176806 0.002955470351915820 0.001600672174455180
0.001695072449781307 0.002970653601269346 0.001556044113887255
0.001867293275357129 0.002896187028902747 0.001677039233446352
0.001796782159740954 0.002814495015570711 0.001562731617442606
0.001793914180101677 0.002795141745529865 0.001544200343805845
0.001785087189509015 0.002792249507308709 0.001582106073612772
0.001720280629095692 0.002774379005328264 0.001564057903807170
0.001719822049673822 0.002783113993431111 0.001539848202837879
0.001768614476146422 0.002790982335019653 0.001465935982517082
0.001705536649984586 0.002778196439827879 0.001477660930976231
0.001814390065030490 0.002781286103779628 0.001534431652934350
0.001705257094890687 0.002757958379038429 0.001507717269742734
0.001692142086041495 0.002752741805373648 0.001522974577195856
0.001677538130450182 0.002761753732117204 0.001495935705182522
0.001736915249405600 0.002831354220085903 0.001490072040799298
0.001918080704790711 0.003063814199089424 0.001885049127391489
0.001614067373357110 0.002922497649057720 0.001165483700683106
0.001749799506776848 0.002805623065635558 0.001177579759853788
0.002039402137415402 0.002848178092255296 0.001515625054516360
0.001915654775608975 0.002809215373636952 0.001435756000797732
0.002097793217821928 0.002677795395418346 0.001805397140974312
0.002129366205570652 0.002711275970919726 0.001651380645229875
0.001633317463233069 0.003257588967576356 0.001213438565571660
0.001650772110922833 0.003074877709951678 0.001221248527622265
0.001855857886362665 0.002867778017496638 0.001308555148016609
0.001636562657790324 0.002981193556114129 0.001171957431292193
0.002047453822937005 0.002928479583757273 0.001560550591434327
0.002066279557913377 0.002906909519643110 0.001627419717465511
0.002019757095316762 0.002964447500802429 0.001461142292721832
0.001957099451375340 0.002773849457528779 0.001592815606610175
0.002007781901910293 0.002703182938699393 0.001613941355574744
0.002076417356973848 0.002755439878572339 0.001550309493740464
0.001989404431083309 0.002787077766699237 0.001559127834286846
0.002042522161991858 0.002925007458866087 0.001670420609141411
0.002012790593061226 0.002834419264032924 0.001572300711973987
0.001955521792685792 0.002905631126824315 0.001688120512927954
0.001897326501788193 0.002815381106202546 0.001531837995445309
0.001780546376593936 0.002754265687372652 0.001478778631595866
0.001866925677146988 0.002776712958710460 0.001498205477434389
0.001788860658191214 0.002800541211106052 0.001498861836856349
0.001829738774595939 0.002872519250643739 0.001580276002257020
0.001726621905418080 0.002771286403986836 0.001487907860943731
0.002013500576543759 0.002932150823212926 0.001669046231763416
0.001956262808188571 0.002998820059441691 0.001506712263615566
0.001903556591636451 0.002986396022202620 0.001643168681142503
0.001837198027607950 0.002894520902252441 0.001673466760457236
0.002094101094104856 0.002999124024409387 0.001392189304055186
0.001993126456081030 0.003007941684102260 0.001430862314656136
0.002011549916966773 0.002967327048616112 0.001555219347349127
0.001977436225397346 0.003070877213443143 0.001376511882846394
0.002056628986274419 0.003033040170962712 0.001333681538608632
0.001899634175216289 0.003081103555178811 0.001408709531723997
0.001854931435626753 0.003065319114876321 0.001471471952914840
0.001868095733440817 0.003161490739647725 0.001415011626367835
0.001977919099912164 0.003087979769899971 0.001370815735071319
0.001977538882845209 0.003091892558738136 0.001326439066366206
0.001904701335964531 0.003095174608294326 0.001442515524602977
0.001851573603100796 0.003139405037596832 0.001484735534278188
0.001807004410052603 0.003065438949452341 0.001509374009628467
0.001844668916208800 0.003097968820197069 0.001466183732974647
0.001840611516217702 0.003240986971646552 0.001618055126748243
0.001836400029142532 0.003196569100980093 0.001696210008627976
0.001832379066972652 0.003242703556601239 0.001545166878038459
0.001841305316487510 0.003237197187651367 0.001638651023734558
0.001808042864580631 0.003195321131262913 0.001599864839309878
0.001820363617377827 0.003221882698963379 0.001672973774054000
0.001790265152785030 0.003139171251651258 0.001677293981025013
0.001795828890456584 0.002995853293539446 0.001753775690552705
0.000862572141047408 0.000537143891305409 0.002400055244544095
0.000994090416386176 0.000713904124432526 0.002584423091958235
0.000611585667233059 0.000720216000639723 0.002857584009524311
0.000429936926044905 0.000633955360229363 0.002514099488922391
0.001811418020928381 0.003085035593795795 0.001614152418546238
0.001827212739110593 0.003147266055127660 0.001564922466707354
0.001857402104158330 0.003189633765226413 0.001506541770529978
0.001793800795726890 0.002976428863099941 0.001722110890724565
0.001837146275326476 0.002983861112379508 0.001673806420580139
0.001836647786914025 0.003031144123297107 0.001607508110201126
0.001799049987966342 0.003013451873880380 0.001699035211601166
0.001767460694907437 0.002855350377787050 0.001620445255407676
0.001779522840720227 0.002831701356144191 0.001554115178338696
0.001773340172468174 0.002882331240519970 0.001553454066666648
0.000940682312248013 0.000739254894546498 0.000501239562108084
0.000769534362725300 0.000683553662933051 -0.000018021594743133
0.000897793869717693 0.000762567037103925 0.000178752672588976
0.001141229975237209 0.000751248822642009 0.000926997077231888
0.000994208705284135 0.001389446275759740 0.000163970130263563
0.001135398000491272 0.001784529102541915 -0.000361730107678386
0.001462811946035575 0.001599566388749822 -0.000331728606927380
0.001051829923006714 0.000781300083891519 -0.000451254386549762
0.001469307341671676 0.001856615900698949 -0.000977206172788607
0.001129132644073723 0.001979330285567611 -0.001214644037318998
0.000465471989683390 0.001879849110362836 -0.004082666615315384
0.000985233207319499 0.001896577653542906 -0.002942161825581896
0.000754251847760810 0.001888559192209054 -0.003338081888178624
0.000353930296663405 0.001956515842146750 -0.004425461297045420
-0.002430899471482212 0.001839698310591569 -0.008456921796915441
-0.002079704196225506 0.001718736890821574 -0.008999043406373589
-0.001896238096011742 0.002067674276511196 -0.008786082109456399
-0.002351817929495326 0.002425228007209854 -0.008365676431995997
0.003389005256312660 0.001219738467438003 -0.000536412622430023
0.003608313445206692 0.000913536849086110 -0.000779212153189433
0.003917348926440637 0.000635939711437583 -0.000416737798564459
0.003679939081793376 0.000947718338722109 -0.000144259170968645
0.000394669378268928 -0.000253515982797881 -0.000952572298097896
-0.000029919078012417 0.000192130625950438 -0.000787875960024291
0.000451288491218506 0.000279504293040179 -0.000656577982346192
0.000895434582039566 -0.000220037995209091 -0.000901037240347657
-0.002015913940103680 0.001668710160551960 -0.005169341222341203
-0.001605368281469002 0.001613977772955353 -0.005368707869411735
-0.002509022508289678 0.001669667816393614 -0.005840744937605987
-0.002687519198916831 0.001765873216740344 -0.005523278084007380
0.001039351285115946 -0.001840403350009533 0.000103843806020148
0.000791981334912222 -0.001970107054827091 -0.000008844957334669
0.000267563104749398 -0.003411182534666969 -0.000184205763324151
0.000422706584977662 -0.003207651340698574 -0.000043787406853184
0.002022630540849867 -0.000441007068671170 -0.000412925480146796
0.002339017089447324 -0.001799837402302751 0.000393231607246217
0.002660339061343232 -0.001587493908132540 0.000250426838248857
0.002801413239640514 -0.000565813179978431 -0.000228741562496960
0.001097322621037267 0.001976147441600806 -0.003195559369405731
0.001706108216011828 0.001964158163822889 -0.002058330980166193
0.001294795189345039 0.001963117813107703 -0.002443967361465890
0.000732976043136735 0.001899075149300512 -0.003672535008531838
0.001760565865755815 -0.002094483313619494 0.000619959318903573
0.002335188335392664 -0.002741484659196367 0.000325735250103950
0.002128293866512138 -0.002445341487488226 0.000050585671988639
0.001656512112210519 -0.001830258419285670 0.000340574610467113
-0.001853146705975700 -0.006282534275772455 -0.002324866510224393
-0.001820051467495028 -0.006914702672530137 -0.002798552164570726
-0.001709764982025244 -0.006514504875228559 -0.002462989312428276
-0.001882690200587918 -0.005966472986435582 -0.001836270098541363
0.003802011219596925 -0.001952413094115138 -0.000939000030723159
0.003852918253023320 -0.002264045874077403 -0.000929816472619983
0.003899930550932870 -0.001737507329440900 -0.000984851212196132
0.004141197619196344 -0.001315466230934739 -0.000894664631774701
0.002338629508437440 0.001235978714409114 -0.002271456586563512
0.003092623378648084 0.001179285869020180 -0.001397263227618743
0.003024464205891984 0.001457804945164363 -0.001251931895115126
0.002358919780998993 0.001518736789838527 -0.002162523209904802
0.001574886886721896 0.000736360436326748 0.000094843484186838
0.001611532969837870 0.000767235808941621 0.000076843842420889
0.000669670547234652 0.001113099063914762 -0.000897311691182675
0.000604771936430516 0.001006808117991012 -0.000821064626358161
0.000913382818869915 0.000549355854893304 -0.000794743247869844
0.001922537141044413 0.000384878914728273 -0.000123281692764816
0.001926885391343990 0.001815223314871895 -0.002374545195317605
0.002615973025803866 0.001633798479596994 -0.001318240482905559
0.002118225470400788 0.001868579637414829 -0.001640510416444263
0.001514416719043855 0.001978958893312917 -0.002740593207115342
-0.001260885910857207 0.002109074030581299 -0.007151068450009897
-0.001579463822527294 0.002641556042245780 -0.006489153679498393
-0.001914168793286058 -0.007482260749149225 -0.003114851381722177
-0.001740152312198656 -0.006689087802719735 -0.002670704865293286
-0.001582097574518198 -0.007200370097480219 -0.002777695140745808
-0.001872356120630217 -0.008197797724328961 -0.003323729956400201
0.000970596974249527 -0.000449769140552442 -0.000457644367421645
0.001227921458228721 -0.000445078334015834 -0.000315362734449637
-0.000526707062145478 0.001711938563002898 -0.003262528236694557
-0.000236762650240078 0.001475138487205490 -0.003304422528825387
-0.001849596982961671 -0.008967207738658819 -0.003613241757143231
-0.001440006466733681 -0.007716687586165239 -0.002844586310921159
-0.001653125973930620 -0.007982275908380512 -0.003203286651597392
-0.002030693446041914 -0.008972535542852022 -0.004163603112684496
0.001379465021983536 0.001877343383417761 -0.001942800016294132
0.000982552195091860 0.001976555308219916 -0.002284272519348848
-0.002986902710360180 0.001897127404819001 -0.007211237420657667
-0.002727702835961161 0.001857396639561680 -0.007802372034599335
-0.002746964083303210 0.002607679275277280 -0.007756668151141494
-0.003155826629428202 0.002491730592610013 -0.007068812023359694
0.002149513708984173 0.000309998683938182 -0.001840615417437768
0.002255909956405089 -0.000580128199630633 -0.001488017545603669
0.003622318625683800 -0.000094240371197141 -0.000985530119379197
0.003190729820775004 0.000530628922643767 -0.001323689807759125
-0.002307924218654606 -0.007241244603261122 -0.002397754633084960
-0.002430272200109311 -0.007793101496972031 -0.002781336755491004
-0.002844093364863620 -0.009816964429522125 -0.004376782851247743
-0.002676058788833176 -0.010004452907990949 -0.005025420143600674
0.003487534084570186 -0.002145258301503894 -0.000569369122723147
0.003392276460145194 -0.002451251692606793 -0.000507519140843176
0.002889351858544650 -0.002107808496809738 -0.000488531748610922
0.003207633698661316 -0.001884880509123203 -0.000556141079944804
-0.000949293636565184 0.001490901951257449 -0.008442264361608547
-0.001027343336451344 0.001653387859556769 -0.008106221028598742
-0.001663757727266820 0.001699412437267474 -0.008979041284955306
-0.001260916783846645 0.001589080535527675 -0.008715205676262544
-0.002514879319980962 0.002734257535508077 -0.005737541508072455
-0.002050069793878839 0.002854699426139232 -0.006085557236432906
-0.000948973074038184 0.001802120604619630 -0.003209905599100034
-0.000508898375669729 0.001088302942214376 -0.007644390983081540
-0.000501360752243942 0.000534092274599088 -0.005162497813509272
0.000644079611703413 0.002177905059210255 -0.002451783654193486
0.000512331425660759 0.002128627799812775 -0.003552461400822634
0.000764896090528558 0.002095339481641823 -0.001314980792744634
0.000752541985190267 0.001811599282519596 -0.000434395482147422
0.000470710145714269 0.001985497487380881 -0.000364954973013396
0.000522194996005453 0.002286090321797630 -0.001415567707848912
0.000754593415346397 0.001373447178245502 0.000306773945036867
0.000378172831968749 0.001486843702329673 0.000354697472982688
0.000753129757236917 0.000610966389111215 0.000849311385503286
0.000906268635372848 0.000629395306685299 0.001387903382035133
0.002672688000898486 0.000941137020037634 -0.001889607128076172
0.001707951853341260 0.001126542700753546 -0.002662379708363480
-0.002832957890625551 -0.009134000583815692 -0.003712462830534289
0.000038705440609958 -0.000441628195018833 -0.000560023310755156
0.000705811227244643 -0.000532646027478216 -0.000836163858238045
0.000597060646444609 -0.000581361531156498 -0.000658316937907954
-0.000022009696414138 -0.000476175362628085 -0.000471205610270689
0.001723088629099625 -0.000092790180401704 -0.000991691963036947
0.001116281550292271 -0.000472642347315745 -0.000917844496848580
0.002453917953744492 -0.000946423890456797 -0.000934668450166893
0.002652125051521841 -0.000995911979043206 -0.000869333593974601
0.002722129496799111 -0.000916157744976938 -0.000786890844958550
0.002480935285529675 -0.000885059513492434 -0.000955649693570649
0.003267778506864374 -0.001237230047492383 -0.000456555533636268
0.003086844319966485 -0.001268264208076809 -0.000293360280850577
0.003293243241784164 -0.001270965257500003 -0.000285848036676520
0.003470605261526983 -0.001223238226473926 -0.000360252451218284
-0.001316395132853396 -0.006279818686665569 -0.002255328261444089
-0.001647325277974129 -0.005785371381565660 -0.001374567084544159
0.003570837506534687 0.000158778324209064 0.000016779278768006
0.003088937611578372 0.000556627980501144 0.000897338959443843
0.002944170474089952 0.000631104878693206 0.000649400094143194
0.003624651277122636 -0.000028683172658970 -0.000163254307952671
-0.000440246437343424 0.000392460095096188 0.000561558050902490
-0.000590354622000992 0.000461402964391187 0.000204195836719654
-0.000414915372729737 0.000488411075273824 0.000341648327048976
-0.000326755638228318 0.000528955333971927 0.000633544034873916
-0.000985862212581764 0.000012914455316190 -0.000106133529820363
-0.000886007459961658 0.000404237000466275 -0.000123808862495331
-0.001063585583599390 0.000485568238634727 -0.000151284087290664
-0.001088967691278791 0.000112948800774031 -0.000052137204224515
-0.000511016919437305 -0.000230772514154388 -0.000253121205568280
-0.000386676247610610 -0.000314564138087587 -0.000306777726912041
0.002297333735589951 0.000743844075011286 0.000641755226177081
0.002336935748910615 0.000566396363657808 0.000463588991695528
0.002305268633957330 0.000058872606092339 0.000388976624444524
0.002448982658041928 -0.000310838228317836 0.000230140057595539
0.002135720695633174 -0.000161812112514284 0.000134681431801870
0.001978046694957828 0.000248250247280937 0.000157037288956755
-0.000084188019383725 0.000426567287109648 -0.000646785867453520
-0.000396290649919854 0.000306927178016974 -0.000494004090725324
-0.000414109781142568 0.000536965850650188 -0.000416502236332084
-0.000595260049065450 0.000940252245207856 0.000448495100419916
-0.000473249892070869 0.000790374990839789 0.000294798427137789
-0.000736964302396774 0.000731623586866858 0.000264151974461353
-0.000688243416969489 0.000907268751942429 0.000306626553024494
0.000791159821212931 0.000333073810540458 0.001050438843846587
0.001235359814406123 0.000591293214856609 0.000560911031038066
0.000657063449012439 0.000412919108611642 0.001720180468771578
0.000524993235672040 0.000229314058170796 0.002050847879372388
0.002907317815529370 -0.000757453107450718 -0.000177699235790998
0.002762339309839283 -0.000847201139440719 -0.000279984857089998
0.002917990448529076 -0.001112987793323685 -0.000471250310666467
0.002895495070037865 -0.001204158919327762 -0.000369484594738863
0.002781995000021545 -0.000490841105376987 -0.000071812310646733
0.002653632818977823 -0.000405590191480955 0.000146620790539846
0.002500290025977287 -0.000105258187374125 0.000411583713081209
0.002659052766922778 -0.000247862241295435 0.000309297322816928
0.002800783572145906 0.000703169371456821 0.001120286787446819
0.002795988362604418 0.000541443001787271 0.000957501430946752
0.002690474861410005 0.000476892366528347 0.000806103542427777
0.002686063933429704 0.000750585197037670 0.000998995262631408
0.000600729222150850 -0.001451828187409339 -0.001014261238115396
0.000717555857269759 0.000089022852614670 0.000156471898774679
0.001313986355936384 -0.000379555470227421 -0.000964316793136748
0.000995585368074117 -0.001818484912119694 -0.001497628782167112
0.003571730455948082 -0.003269610944825546 -0.000624893554425853
0.003691585018784167 -0.003048996073141953 -0.000865255597405918
0.003506512989440271 -0.003608704086620648 -0.001165256793072815
0.003272214386532065 -0.003511640534436815 -0.001050078115110806
0.003350064123541638 -0.001254487299314108 -0.000037002512857586
0.003394319868888531 -0.001421954771306796 0.000047537291756949
0.003536848756658249 -0.001423910535796035 0.000425823568093288
0.003467036910051707 -0.001252142897623500 0.000299764762264441
0.003205107267398511 -0.001841089762159573 -0.000821941941498905
0.002641510338374727 -0.001216516833250123 -0.000647133998519940
0.002732414711012551 -0.001841544834179996 -0.001015571259133976
0.003249416564583732 -0.002517591733547810 -0.001090294971303345
0.001060177723287035 -0.000948797422823538 -0.000596053902665674
0.000317210357812884 -0.000603482192524061 -0.000607201324246543
0.001869248506419622 -0.000299336211817408 -0.000801952273576454
0.003526170305369089 -0.001483535328663272 -0.000670033306434063
0.003427331724523744 -0.001326328929111666 -0.000497975292309987
0.003099722642652388 -0.001236859756846304 -0.000276411306272652
0.003085073641923400 -0.001264535917589859 -0.000440095538281225
0.001950882862060570 -0.002267087201294052 0.000863398103577599
0.002530105631500239 -0.002914062842271497 0.000418682055088583
0.002174372678401404 -0.000691584111994020 -0.000095390402640839
0.002572240637921670 -0.001064936530986693 -0.000373701664600233
0.002620110940199026 -0.001046233401769058 -0.000172984915098481
0.002254749553589658 -0.000731511710044561 0.000126756972644667
0.003718400474539909 -0.000918361821393982 -0.000461300396670588
0.003746622165701399 -0.000567839499913270 -0.000756122196779142
-0.001099785037995188 -0.006410702641941272 -0.001881647456916119
-0.001044958208991183 -0.005683411215749590 -0.000878025218658884
-0.001324222563416375 -0.005734969989378272 -0.001015714587815136
-0.001139436485193121 -0.006288284185532208 -0.002080000024448165
-0.001809612163360989 -0.006926720918379670 -0.002267415471378054
-0.001436751942378373 -0.007066775921437686 -0.001905510675153926
-0.001507226708531801 -0.006927788278314636 -0.002107960947137047
0.000015135494443057 0.000769692117110342 -0.000339597755789597
-0.000306166812874622 0.000707535052611616 -0.000391110045162884
-0.000288529672671586 0.000867260166306601 -0.000117661624842833
-0.000093343408849329 0.001055928343506819 -0.000063493760172276
-0.008565221821346019 -0.007228622585045461 -0.000747141524470808
-0.008481816835615207 -0.007515052908285380 -0.001879640130557613
-0.008509024040612493 -0.007097552318416586 -0.002031354946254098
-0.008614934679404440 -0.006906312721515717 -0.000814990549719478
-0.000667437762553802 0.000877093625899662 0.001043572835054662
-0.000668122449185124 0.001032641801583817 0.001110877827795003
-0.000450251707333715 0.001146398552308274 0.000484065085842079
-0.000444964978881753 0.000910248387257276 0.000496017523919791
-0.008649970373586557 -0.007790892160102806 -0.000761363482086390
-0.008639944540197748 -0.007831193957793827 -0.001658393442769801
0.000220098852472184 0.000863726050197194 -0.000290813757581280
-0.000021541217458179 0.000579860350807475 -0.000504675677961184
0.000753512664517443 0.000834072655718907 -0.000115842689804533
0.000492407503991487 0.000638123964816543 -0.000447326593711356
0.001192199412044681 0.000921840771376258 0.000534597630594176
-0.007567236547012610 -0.007763593227089552 -0.002438274631465345
-0.007618776044825221 -0.007789237661562184 -0.002669693185463624
0.000082766999511684 0.001175535867788692 0.000114704568441900
-0.000201451531313082 0.001248442613969710 0.000472638009930135
-0.000401952902785697 0.001252588547061488 0.000948245355049361
-0.000678257615287778 0.001367142420596467 0.001377193554461778
-0.000742420995362773 0.001382116423710987 0.001567247044869668
-0.000615319354793577 0.001960312818973797 0.001617017401012411
-0.004497806470688803 -0.007979846284161651 -0.001905828171648401
-0.003964591473903229 -0.007695508537874417 -0.001365607096765401
-0.006102851522396245 -0.005200215780044602 -0.000550692792533971
-0.006599331452924767 -0.005147185892526123 -0.000976612213239326
-0.005378522434245134 -0.005013912978098142 -0.001258640010623137
-0.005184190601936677 -0.005044002989858193 -0.000246054435454793
-0.001758983899397402 -0.004988507145659542 0.000606698050128294
-0.004011966872296283 -0.005041429430527334 -0.000004670303634151
-0.003747980703972942 -0.004731664240833697 -0.001061531967388853
-0.001888293747256899 -0.004428369872647930 -0.000233185356830780
-0.001632688873111656 -0.008106409179494272 0.002294294553280235
-0.001803728603229377 -0.008257834310386528 0.002313362559460491
-0.003066627412615789 -0.008060472829509228 0.002487907041313627
-0.002914657881348912 -0.007975323290205703 0.002402897321010365
-0.003499333437932071 -0.007609286692050224 -0.000922685647502348
-0.003156318438484469 -0.007729754286310358 -0.000555602381038223
-0.004598170372829370 -0.008572340389356217 -0.002755116642704287
