VERSION .7
FIELDS x y z
SIZE 4 4 4
TYPE F F F
COUNT 1 1 1
WIDTH 749
HEIGHT 1
VIEWPOINT 0 0 0 1 0 0 0
POINTS 749
DATA ascii
0.011763025246612423 0.005188486064116845 -0.006708221843722766
0.011162016833234270 0.005846165252002017 -0.009657451789043092
0.009975205533842450 0.007300513197506838 -0.013371467747034890
0.010494950391538027 0.006871628535478946 -0.017293586248689083
0.011099158125837238 0.006489224881475427 -0.013472120628013966
0.006878407786865988 0.007463813576843632 -0.023214007727193068
0.008952011548837782 0.007179863767575870 -0.020776498911974979
0.002278512669538994 0.007503785404587381 -0.024980250759098734
0.004614589830527427 0.007618302810828283 -0.024457296362441990
0.004607588337049537 0.001129088410826873 -0.004667991744895261
0.003093486148748859 -0.001248387841398814 0.004783984266955020
0.003620686608074949 -0.001132314256369780 0.004568333527068348
0.003551724227523967 -0.000379310305383100 0.003099575497597359
0.004621765245763016 0.000087457519121564 0.006554505514431407
0.004701826507350140 -0.000152228100920426 0.005719328118934611
0.004047927484630696 -0.000785948253793633 0.006363337475812237
0.003912902228605773 -0.000758842662337989 0.007160310143453885
0.002989977008111204 -0.001431597644159428 0.005696656959892033
0.002468204296247619 -0.001146349180006825 0.005829482692042767
0.003592666081928631 -0.001487978403223956 0.005515162534646611
0.002296968023420476 -0.001521552354413137 0.007047762356815517
0.003135595083563392 -0.001375857144305790 0.006121583750303571
0.004722876918518615 0.000572605477720434 0.003178340740205083
0.005037355830868518 0.000579485286627142 0.004444608543879845
0.005114689626800414 0.000417844117394251 0.004352116437199503
0.004717616277757583 0.000730000374070620 0.002988260381982042
0.005866304365388173 0.000738161064849245 0.006904370478001356
0.005616216392365939 0.001143225494386035 0.007586380098762409
0.006265147401659970 0.001045084864028320 0.007563832341462039
0.006385660901681415 0.000517971646911955 0.006898887448200820
0.006315788630352798 -0.000019981595776248 0.001040619673431309
0.006255566997944605 -0.000237986268550374 0.002576161102977101
0.006777197926081122 -0.000958471950834995 0.002065443440643494
0.006886666200529956 -0.000818945471505098 0.000492125670434399
0.006274484060239169 -0.000093915658408732 0.006252282500984594
0.001960239628465170 0.002794944849325291 0.009419214682539135
0.002878202547140926 0.002796659062899216 0.009404074690291826
0.003556451465063952 0.002475856746374011 0.009408491246909916
0.005163739629257126 0.002230829086616580 0.009436725303943480
0.004617121890003542 0.001997334045125263 0.009534593085752906
0.005126494735888372 0.002177596117856639 0.009925267609405378
0.005769878086244059 0.002629748538602282 0.009010825228405420
0.006303868579254483 0.002866068763417501 0.008442715869106417
0.009451990087326209 -0.000551477231650910 -0.005584410311948483
0.008672617393061291 0.000449031871106977 -0.005081329513429940
0.007890182133213955 0.000338772091899955 -0.003910793535511351
0.007840514278740177 0.003660963937697373 0.008145014411183064
0.007002897728209111 0.003728243036591938 0.008050946136858290
0.006762030285096046 0.003853186021799505 0.008069879691006938
0.007611973103742612 0.003899376528823040 0.008233179773612286
0.004719845220918094 0.000427332611430379 0.003276533107816431
0.006925883091551206 -0.000963764514261717 0.003492579810104437
0.006512824723162233 -0.000467957507531344 0.003870115268191284
0.007055714366019450 -0.000512661498932735 0.004890230995092951
0.007189272168986530 -0.001007030651529052 0.004558323212840107
0.007595915306617961 -0.000651166131964014 0.005359742265485574
0.007452843257796398 -0.000152394863450091 0.005562807877251571
0.007638666538772016 0.000388552128250769 0.006161905557201190
0.007876100407406720 -0.000101966618521219 0.005985830445909429
0.008032713242240322 0.003150632678625261 0.008002060065658496
0.007371979905436872 0.003350771210729852 0.007935766702379115
0.007635516674094214 -0.001578681173310319 -0.000960355767347492
0.004846613035787642 0.001011009001797367 0.000959045279816893
0.005050943801875807 0.001227456564725740 -0.000652151043422353
0.004687244358827042 0.001056101060871908 -0.000291760640335016
0.004634741948819678 0.000768107270691934 0.001310383878918152
0.008076770032307209 0.002853123400790910 0.001945378252823734
0.008526688115013692 0.001718940490705796 -0.000053019638284461
0.007640949573204668 0.003911958785486194 0.004094937104434542
0.006543822231713606 0.003653520439117634 0.007812700499294415
0.007409661767486696 0.004292197683912822 0.005944335648984347
0.009727677466623449 -0.001057868803976052 -0.006543387300716756
0.009729273536175080 -0.001621551636620240 -0.005954035924452292
0.005799512542483324 0.001306765274255406 -0.002652297264700934
0.005279058599254870 0.001388646947887173 -0.002056782275029367
0.007205136880031534 -0.001682428681819080 0.000485781324549129
0.007040172332030646 -0.001766161678413967 0.001969658606947661
0.008154615790020072 0.003361691936631953 0.008297477737045932
0.008021712500068836 0.003753205378346305 0.008392782866759168
0.008125247234739176 0.003538204045882160 0.008499848428988741
0.006508716727205886 0.002595935349241777 0.008971158593228947
0.006654945923479810 0.003792008006206398 0.008070560175677435
0.005002098464719998 0.000654766881235246 0.002419288263391582
0.007034904081633939 -0.001714544565687738 0.003498722624996752
0.007058674976629870 -0.001657950312329566 0.004643560909823546
0.007124783118632507 0.000180287166431951 0.006041872703417451
0.006778430160815879 -0.000258147133942600 0.005520820847551606
0.006534463229765572 -0.000065733833849697 0.006060102638001504
0.006795549670746488 0.000358490537197222 0.006551162792381331
0.007926670746149410 -0.000661180260354191 0.006034810992494369
0.008140070743089220 -0.000043001960812293 0.006813784665088128
0.006811911634014766 0.000670657902680017 0.007157648608573228
0.007209148830800148 0.000507386880416245 0.006585372930125364
0.008218034714050198 0.002886103874196631 0.008142162577982779
0.005045176962515449 0.001221949745660748 -0.001911314848545599
0.005779135140817099 0.001410764981809261 -0.003803821697209180
0.005533928067112311 0.001282708970272423 -0.003803552399154425
0.006795745606257647 0.001359808290501376 -0.004642996595644613
0.006137326490842802 0.001435482652572344 -0.004213110441518095
0.007726541065863112 0.001105889010939367 -0.004887007269169837
0.005265672593500334 0.001181995758927778 -0.004234589662962530
0.003940296466035108 -0.000778908058480660 0.005270782467129656
0.008030754515182044 0.003909094093728285 0.008620696497971449
0.008042406609494755 0.003464714947164095 0.008716520777717831
0.008086799626931611 0.003402678794274716 0.008571053674700929
0.006628702280971935 -0.000070988714343593 0.007394111428535611
0.000133359296169052 0.001476715654473796 0.002645562499645213
0.000113003484888162 0.001448249169273610 0.002863689420907705
0.000078776042748801 0.001346584816469233 0.003404498046942774
0.000068879085389592 0.001312043219426545 0.003512291009039695
0.003830974154513346 -0.002278975387559951 0.004967788062669298
0.003742930239346049 -0.002364217202290787 0.005124053772757460
0.002756742695424698 -0.002801295392767361 0.005202975395507065
0.002627368913988131 -0.003326082007508761 0.004653684659364690
0.002913625079207127 -0.003421872857279439 0.004796333801570414
0.003215853607264991 -0.002925232079463194 0.002641613356519561
0.003604184737414366 -0.002159020868212738 0.001758704807941405
0.003949431300359708 0.001316696000085702 0.001253674538083576
0.002937662295753037 0.000693931361916561 0.005244198029297131
0.001494750963984648 -0.002234691353121110 0.002457947838183254
0.001569986242933672 -0.002926890711993454 0.002857049377454213
0.001367970217520945 -0.002780040213815479 0.002570946096901437
0.001233653403858212 -0.002079909854041924 0.002231583802801105
0.000996516811114773 -0.001834900881289919 0.002349840188996709
0.000848850541788537 -0.001393779360210408 0.002000017751022089
0.001075058291613729 -0.001440500371678009 0.001771850960699035
0.000656877210951842 -0.000651253094846855 0.001369924349200005
0.000935107632274174 -0.000556294946468814 0.001149922762111197
0.000480656175016473 0.000158047220674828 0.001208245977103409
0.000290656097634471 0.000482397877530977 0.001870583123905475
0.000553500040684112 0.000780776304041721 0.001627120972955987
0.000767555498364514 0.000302300171468162 0.001083592882542845
0.000662196625611295 0.001491006044270160 0.002123073576196753
0.000364149711914940 0.001165736636208570 0.002374989086972158
0.000405164635166515 0.001665370106382017 0.003093987619724808
0.000634973606286826 0.002074886536190430 0.002819991967355614
0.000744807869317684 0.000444297251447099 0.004449169941830556
0.000890289425360594 -0.000117729533189698 0.004865313977900824
0.000966729564811064 0.000150133081835528 0.004803786245176868
0.000780383518697728 0.000919747347938330 0.004358552277820351
0.001220711864716186 -0.001154476770870788 0.004610112000283692
0.001117555527963922 -0.000469904301275640 0.004919754947689529
0.001052450904183024 -0.000561512069834954 0.004726624912617176
0.001170412455682040 -0.001188861070506651 0.004201911671677798
0.001140089465975317 -0.001166026858058974 0.003640866608142275
0.001251626991801330 -0.001925767187434995 0.003469880820611099
0.001283724670852541 -0.002024518320410046 0.003886024305102428
0.001991004595267261 -0.002530178660552395 0.002548690104125339
0.001740408436267576 -0.002436509064063626 0.002543037948114120
0.001714216622303905 -0.001748275509733411 0.001967982487768214
0.001106349165859395 0.000359802890461564 0.000970968090431944
0.001463496431657945 0.000309887998121606 0.000936020455520207
0.001667620772281502 -0.000772160136247071 0.001298539957769521
0.001303734763106927 -0.000652898341409204 0.001174106768080877
0.001252267013909728 0.002674540369387552 0.002469329871819871
0.000985625208602764 0.001809897776766162 0.001932345932244393
0.000928709514283610 0.002463178209652415 0.002599740271312125
0.000878516876750639 0.001026159381095494 0.001400802124979757
0.001219886018562993 0.001223409962041429 0.001223544891007368
0.000672311067947549 0.001936103551627091 0.003600135659991612
0.000532859615044346 0.001466124703620235 0.003760673078689126
0.001530515024424028 -0.003077794761289665 0.003390244804003924
0.001426966830691142 -0.002634895135397277 0.003954445709099716
0.001395789394481261 -0.002748294562791267 0.003554169217730671
0.001447529651243373 -0.003084257209149692 0.003032781750330181
0.000946170771126475 0.002392206088262416 0.003539134572716061
0.001558683882899966 -0.002549631602337303 0.004370727345043931
0.001679298842961923 -0.002948315475186630 0.003721540205476060
0.001323615302109605 -0.001905533639227035 0.004292969352476971
0.001431243876958935 -0.001834707222921354 0.004674170285556335
0.001272261298786895 -0.002700039399021571 0.002755157321882901
0.001118122964837120 -0.002246014489916584 0.002500413184916347
0.001737531630434417 -0.002929326913199554 0.003013985882266865
0.000836132590464384 0.001292094813812715 0.004373564079356625
0.001019991262412471 0.000389163044531883 0.004824333883128932
0.001154694705062975 0.000688363864371445 0.004981335466410614
0.001018826487284681 0.001695868741872382 0.004393110890083578
0.001474400944288254 -0.001012948173313415 0.005158714434882618
0.001220578311287253 -0.000243002432667278 0.005110662529300081
0.001306169409973387 -0.001087617996559383 0.004870100121298642
0.001037265198966786 -0.000661652301793820 0.004516381539390211
0.001607710215005546 -0.001859950357548619 0.005035201635986374
0.001371496752368495 -0.000402190580516732 0.002617320221017646
0.001246880628512283 -0.000329884240949853 0.002580289298116218
0.001315236748126346 -0.000361579422917687 0.002450149821611013
0.001435791798610893 -0.000437350375397400 0.002496590473067402
0.001053328149589885 -0.000237801326869659 0.002288898835441817
0.000966456951718033 -0.000358909757009548 0.002150329846126135
0.001091237363930746 -0.000410664013102326 0.002068542961312715
0.001167730683306586 -0.000314466479254871 0.002178985394950024
0.001488178573513370 -0.000508068594980663 0.002380613415829025
0.001373252745983264 -0.000416230157862587 0.002347712958783941
0.001488279856945186 -0.000613875591578563 0.002290399856819614
0.001608751756817109 -0.000745334627437674 0.002338440753468955
0.001594001326057531 -0.000600682586090628 0.002401079242958119
0.001706688291327885 -0.000784182342238148 0.002377122320521937
0.001566394333309899 -0.000946015903917224 0.002345828244619852
0.001703045481863390 -0.000932442054445596 0.002414913457717482
0.001562447027573389 -0.001201696928156573 0.002666751876437579
0.001562202645980959 -0.001244536473322967 0.002835775588346726
0.001705257095999945 -0.001161595436654498 0.002844501089662065
0.001706135708083337 -0.001113921113473942 0.002681818982996116
0.001653428800425780 -0.001132143697440650 0.003159919266197369
0.001692785263086499 -0.001158249570786786 0.003000040156173835
0.001552351708242722 -0.001249414226865814 0.002988112236375183
0.001530906346163975 -0.001221412493541612 0.003149441122957337
0.001300225618253201 -0.000351939640919434 0.002857045473077815
0.001163901061750200 -0.000261505633711652 0.002854733718050640
0.001190962044949859 -0.000305327099502851 0.002722887556791095
0.001319396741190437 -0.000381802832337723 0.002744389828601661
0.001458559971254356 -0.000716074732399639 0.002130192389910313
0.001437252603162423 -0.000857767607420142 0.002213318026450383
0.001494200099739140 -0.000763190185485097 0.002256162465727071
0.001468179589845587 -0.000631628909487688 0.002165346128022220
0.000974045818966450 -0.000040330548523332 0.003460990530731151
0.000799636965346550 0.000087717635360743 0.003505098411100022
0.000699081717908217 0.000202944334568609 0.003159214070277588
0.000888497134191892 0.000054234732552586 0.003220380424677580
0.000749321584627616 -0.000258172456092612 0.002288268526446576
0.000635069186666899 -0.000140271439710342 0.002324973376427657
0.000639779600674690 -0.000610677078180870 0.001996808784642327
0.000729439382330162 -0.000524673034374288 0.002088004851413403
0.000847742767891723 -0.000299069022127205 0.002240723110530703
0.000828023902735028 -0.000531873728212741 0.002107378767733885
0.000949529010818673 -0.000559922181017635 0.002074931943736773
0.001079552821540390 -0.000564076318532508 0.002013051475533470
0.000859884807887586 -0.000002054598471532 0.003894732483005646
0.000996280932010349 -0.000148439319436750 0.003790395968066776
0.002279827337623838 -0.000688974065178595 0.002493557819411577
0.002288044340744275 -0.000671309686303908 0.002560769465996651
0.002220365086056632 -0.000666386156738693 0.002552029069143100
0.002213865400075152 -0.000692833456660992 0.002481009250740850
0.001173434652112980 -0.000822309627837097 0.003810389151057487
0.001240528310398814 -0.001137797201968357 0.003619861705495907
0.001210522007068226 -0.001089788896826402 0.003735235064176669
0.001115757061619984 -0.000713649327812252 0.003970621713006607
0.001247897829167198 -0.000886378083606460 0.003713796410065126
0.001300252190923733 -0.001148930876078630 0.003536554940439063
0.002312839594306836 -0.000850456018016679 0.002474850645511163
0.002296808050222963 -0.000795814621572052 0.002444493537568457
0.002232127348774827 -0.000814050008279614 0.002442129524923101
0.002246326303506351 -0.000870403544671979 0.002476685217544957
0.001552752901289478 -0.000499025674413423 0.002515083891230242
0.001493318512184014 -0.000452227122378790 0.002637290291641280
0.001779576904623288 -0.000546976906135013 0.002581889011115462
0.001632771787126457 -0.000489029567618628 0.002644165896224366
0.001663655291036291 -0.000549583345406001 0.002505179346017576
0.001770464447868076 -0.000600222871625601 0.002487227263794457
0.001558946507795462 -0.000451537562269336 0.002939240990832506
0.001424525361787828 -0.000392401875143926 0.002948397828361502
0.001463883485120876 -0.000433718653334495 0.002812172922451845
0.001605739877316984 -0.000481890951399163 0.002825521035389864
0.001426386391633810 -0.000345797138070710 0.003206231152149946
0.001542693895880001 -0.000404999692695742 0.003172794826952841
0.001544836341331644 -0.000395548115483828 0.003289032772554280
0.001444770438031706 -0.000362536726192120 0.003297162403739805
0.001787525296911958 -0.000550703809575282 0.003041353109490055
0.001908237397205437 -0.000627394140575033 0.003042740850950804
0.001896211020353695 -0.000633970468131961 0.003122575250577542
0.001779110131354662 -0.000536981967956730 0.003133892664221155
0.001176793966491466 -0.000994736454381181 0.003891586134452854
0.001033800115421350 -0.000586011648602931 0.004241653441334503
0.001579600155986601 -0.000987802731002634 0.003477829146039404
0.001527345664493972 -0.000831863504072026 0.003609760229605028
0.001610253964693527 -0.000798621165269548 0.003605024329952929
0.001664651547391159 -0.000949497690709369 0.003485427277112187
0.001281124062657500 -0.001389959075394030 0.003384638651356159
0.001264061649281247 -0.001422590767446088 0.003454122717081069
0.002327514031158357 -0.000879049074238640 0.002535925790215208
0.002260911923195493 -0.000899594267139818 0.002540003101704197
0.000991140212688312 -0.000764113890344028 0.002076707491196906
0.001119899363002422 -0.000723773242599982 0.002018214377074295
0.000884784614829918 -0.000817992286815632 0.002095188942354245
0.000812548646286689 -0.000927128126876117 0.002062549395515996
0.000761886728075772 -0.001146644583034202 0.002006376185583947
0.001707277010046743 -0.000519268647387382 0.002720256794766758
0.001420104818419983 -0.000426200028237857 0.002729664416818327
0.001290149215976918 -0.000309357687872848 0.002971326084316360
0.001373694053732113 -0.000390640181357525 0.003538874958257061
0.001314824511210890 -0.000409348005273308 0.003604532504841823
0.001298507882421328 -0.000301363808426562 0.003438196469370795
0.001366018787802165 -0.000335239538520959 0.003412365293292185
0.001479957659050390 -0.000643640865218084 0.003636322031670122
0.001470109163188001 -0.000498684906589613 0.003584176994187318
0.001556153160846268 -0.000500391114347130 0.003569626191897233
0.001566926704209637 -0.000621343286322452 0.003628164635650299
0.001430309564699016 -0.000769357907194727 0.002061088693977618
0.001361333023694211 -0.000886420273627555 0.002136206637514763
0.001088749798913988 -0.000476857951973158 0.003900999622304684
0.000988761048426303 -0.000345280346489393 0.004047478434372053
0.000876657770269080 -0.000221561344162494 0.004269489003082619
0.001011663196305158 -0.000072403691293538 0.003017733265535309
0.000823538754346104 0.000083373545196252 0.002971411644611162
0.000818645315643166 -0.000002957675605347 0.002704181886276552
0.001005748184806721 -0.000136410352725518 0.002819236728179185
0.001107622593804977 -0.000231491235976796 0.002521086072055151
0.000946918886599750 -0.000170143943359327 0.002406189921205048
0.001193477680416730 -0.000279101501690943 0.002389656055960355
0.000628211371911600 0.000132600818680570 0.002747695753761284
0.000486602136209505 0.000384931037526476 0.002996185860680674
0.000423896834420511 0.000176578538265247 0.002468663003625957
0.000628067624674888 0.000289957996173288 0.003540625813490058
0.000744425502804954 0.000067462206113595 0.004012747893972976
0.000193699420467835 0.000529986675326499 0.002689592146876893
0.000166107079104714 0.000241924755594222 0.002122097628918900
0.000393970025785113 0.000688427322901673 0.003356491636638340
0.000548648278727998 0.000216015909792145 0.003935765849177280
0.001218832489189658 -0.001239839250931195 0.003455734841931860
0.001085369940386246 -0.000889589034621923 0.004223346816403385
0.001253199984801344 -0.001406635838433237 0.003513763656363359
0.000549323615751696 -0.000873755292578891 0.001769712496402869
0.000481550344001159 -0.000214059705474000 0.002006283166722478
0.000289116601800456 -0.000061283254355049 0.001565359527229961
0.000744900090569951 -0.001569265787391176 0.002154650885151735
0.001243974298302753 -0.000376565317157678 0.002096680550842047
0.001316384129237828 -0.000408988907594761 0.002032410196962499
0.001379671999578751 -0.000423642499191960 0.002109598539798559
0.001325063325590722 -0.000400728846904888 0.002184600428580774
0.001805316218083888 -0.000816368182163404 0.002405387474984830
0.001786348713388011 -0.000695323686807085 0.002421557733303266
0.001689222499087846 -0.000657947181821178 0.002409058888021206
0.001134596248444950 -0.000188952958896219 0.003571995391157974
0.001145491735517472 -0.000305737776561081 0.003765990696534826
0.001819085936077359 -0.000564487724748081 0.002664292321466893
0.002164277471190741 -0.000885598426668259 0.002476169464863550
0.002150208791702842 -0.000821393236572557 0.002438913999040287
0.002005485570415359 -0.000821161991075653 0.002434061865789558
0.002024870349896493 -0.000895253058121112 0.002472831239460229
0.001948031168332321 -0.000673001478590473 0.002710477002266548
0.001907822346743227 -0.000614905716839847 0.002643927063068128
0.002007099266078282 -0.000643118490360256 0.002634076210522574
0.002042836695638280 -0.000710322321932525 0.002685893386423315
0.001855998932200497 -0.000587306778146755 0.003221940792609861
0.001764831630407949 -0.000518349279501816 0.003239903639549676
0.001855963088854604 -0.001009242523004757 0.002709593535426206
0.001829106642336808 -0.001020650964093356 0.002553274959753728
0.001699050230200817 -0.001062940988481512 0.002520660482438034
0.001543503941186295 -0.000423495005895641 0.003058209417545911
0.001666997226354322 -0.000483208838123677 0.003049601692827422
0.001663014727792993 -0.000466158140669055 0.003152344575142053
0.001759076056768801 -0.000554133557263125 0.002760456138209152
0.001843117709888900 -0.000598802618621039 0.002733559641077375
0.001814743327661402 -0.000579198392534676 0.002819577160362891
0.001712398530535121 -0.000525988207410067 0.002832127227373146
0.001428341930140138 -0.000871234431738850 0.003635304622117641
0.001371517358858372 -0.000623961266254101 0.003668609643203130
0.002283711237716979 -0.000737709085725678 0.002451955043988626
0.002220051256717596 -0.000750956178384502 0.002442241489741503
0.000858619825188121 -0.000386169421361590 0.004665229597778449
0.000707508550158945 -0.000100070576265149 0.004411097327457644
0.001415064680904378 -0.000361609852054293 0.003074570300475480
0.001558782958656439 -0.001118959039473076 0.002500560670844957
0.001294199667111837 -0.000283966421285062 0.003106248074596211
0.001813634535349897 -0.000916031439245893 0.003300525642407050
0.001798088912664201 -0.000786556164907195 0.003377226815913876
0.001872709844279582 -0.000780514044013716 0.003336658518772486
0.001886911453339079 -0.000891961313669317 0.003293814036248435
0.002173063551845809 -0.000739277735228332 0.002671064384981557
0.002151125994529960 -0.000675042208536600 0.002622240753805302
0.002237982369018630 -0.000693937276886496 0.002622121457480030
0.002254896445428619 -0.000752856458404549 0.002665011578367907
0.001873210713900351 -0.000597808275386106 0.002569626900752599
0.001859762200719479 -0.000628373333879398 0.002489555123622169
0.001971285277680327 -0.000654777558018378 0.002489661615601010
0.001980551272632592 -0.000620590801841930 0.002563847272167200
0.001876821346603742 -0.000721283972927183 0.002437089799737659
0.001985939139172040 -0.000736186316130409 0.002441319077808801
0.002190715295138516 -0.000828153829602128 0.002677471601499497
0.002189432770261477 -0.000896611193126654 0.002625859301903039
0.002057245169096730 -0.000909878352936428 0.002638707389780445
0.002065968496483164 -0.000812442448438160 0.002689229074497286
0.001418721869416433 -0.001314330014548096 0.003147655412796286
0.001406378576632999 -0.001240901933468754 0.003320495448355893
0.001511324360095462 -0.001153137014109678 0.003320384037310541
0.001621728687626524 -0.001077843656250134 0.003324519547638047
0.001725686682807723 -0.000977021572642181 0.003333413725054191
0.001767980753622765 -0.001055638795391454 0.003173718158308760
0.001479783982273650 -0.001050086823372223 0.003479018238700550
0.001952841576242545 -0.000837624383367887 0.002758250314720321
0.001952607464236860 -0.000921371484856702 0.002668065703125604
0.001950378004022886 -0.000939115698578385 0.002769621513904820
0.001314631009465890 -0.000285783630743701 0.003273172384181891
0.002136272991959703 -0.000748276476621097 0.002438939985805433
0.001050502514162379 -0.001552905495806178 0.002407477023638963
0.001146130473149525 -0.001700359909972065 0.002660877130518544
0.001200948361342880 -0.001538381166671004 0.002646080002902470
0.001102792377745607 -0.001366893337926471 0.002384661312560067
0.002130572410616952 -0.000648950734369217 0.002552939852392554
0.002128172909027417 -0.000677667402317227 0.002480602853135745
0.001771441787851363 -0.000539805725255808 0.003337790663417802
0.001849137236866430 -0.000599903465464520 0.003306265662360801
0.001863936558816736 -0.000668048512301279 0.003347474483676654
0.001805206005257660 -0.000636274728962461 0.003389977581079303
0.001381901490171448 -0.001117476656279549 0.003491851651381210
0.001672845075529815 -0.000742666999950289 0.003617526729250795
0.001718760602369338 -0.000895173068380574 0.003524827972827957
0.001324550452957392 -0.001327757386986762 0.003340581704337281
0.001327924936156530 -0.001428776567346266 0.003139872600382120
0.001277203192649817 -0.001543581109277392 0.003143692554969658
0.001841615187232572 -0.001046229875495444 0.003009712861813698
0.001426812226089717 -0.001347240227179312 0.002981282789911744
0.001322460641446823 -0.001446451718903028 0.002977077770791278
0.001236009413667681 -0.001578723230818326 0.002913175607297432
0.001212012141090646 -0.001732013249248465 0.002925314792195288
0.001260343546395907 -0.001651727244073547 0.003176362808240755
0.002179374937749350 -0.000917369479174814 0.002544786577719994
0.002269101545363100 -0.000883207775008608 0.002616000469875998
0.001251402993126573 -0.001744478652868223 0.003207148781468668
0.001249574040948959 -0.001742902193668764 0.003220502464411835
0.001184847990429143 -0.002071958033496303 0.002952268193780247
0.001199930579599995 -0.001896386552425243 0.002932251785901880
0.001318910059103179 -0.001453646380695683 0.002795133673349263
0.001282536148351046 -0.001378652193742958 0.002602619122081767
0.001426203729881635 -0.001341185330030926 0.002815101758449276
0.001425737584527279 -0.001287988730166314 0.002657101072325212
0.001839749726250473 -0.001084157978158057 0.002853128445551777
0.002430198833136707 -0.000810279950728745 0.002646925917936055
0.002337257466495127 -0.000817034647650496 0.002655084853417756
0.002326442134177246 -0.000755267572933859 0.002664878445693511
0.002422211040322278 -0.000758084302069333 0.002660877549444514
0.002267283473960985 -0.000825088849089588 0.002664110737498873
0.002336603381846945 -0.000867598256185948 0.002608841804481532
0.001415117231828323 -0.001202982002187382 0.002461625390317578
0.001915668880438644 -0.000650573340308556 0.002804122227641971
0.001220285045876260 -0.001208157721588541 0.002356466485698930
0.001429416833207774 -0.001043232761109310 0.002307865983824641
0.001296597260739140 -0.001042986987805167 0.002222678094032163
0.000985309672178702 -0.001122897390809807 0.002183178200338270
0.001073204163023210 -0.000995614545980443 0.002163902480851951
0.000896538381713323 -0.001539713497481767 0.002225696151109667
0.000929617791951640 -0.001294052615396672 0.002182218296525432
0.000841262767374371 -0.001814317549620988 0.002301777689645874
0.001185509146587726 -0.000892429042298354 0.002097509727491630
0.002367979267230611 -0.000680955461549118 0.002507403122084560
0.002377103370272077 -0.000671644557604506 0.002575151520609968
0.001008605978175402 -0.001749299242309767 0.002454401738696789
0.000927184395401296 -0.001868845965028368 0.002549138366383123
0.001276099221437985 -0.000344943814066189 0.002284435479668095
0.001210943533329052 -0.000220999217897396 0.003314554763014918
0.001178108728967426 -0.000197414935452512 0.003148786746327513
0.001241703826143780 -0.000370170794345622 0.003687434495997807
0.001231564688453860 -0.000263635222522420 0.003495541280309918
0.001075698242968974 -0.002064186724635317 0.002667424719783938
0.000183487231177458 0.000816208486016971 0.002637719537082577
0.000343245972591080 0.001181001682142956 0.003284125360610614
0.001298850054511594 -0.002462306150642848 0.003104876040856757
0.002374478067428199 -0.000721238462374368 0.002462839023493404
0.001960164568570604 -0.000740316816273469 0.003061988684471563
0.001955286071547801 -0.000774041031768948 0.003094696037443452
0.001184740038558472 -0.000443767235382125 0.002009452691586955
0.001278624869419874 -0.000458577920813467 0.001965620258578570
0.001320171751038015 -0.000643763371945896 0.001928868131509947
0.001283004779949980 -0.000538612392608052 0.001927112828288095
0.001181270695473071 -0.000559167579549259 0.001959556985769498
0.001219852208051832 -0.000683614525956139 0.001965487912058597
0.001063951334902142 -0.000099404455457189 0.003227870334796235
0.001113362217945041 -0.000160685161079014 0.003385321200682735
0.001338115292142863 -0.000916746036522550 0.003653521803234624
0.001278390632325208 -0.000639318718294203 0.003721334393802117
0.001897047864049830 -0.000825050578510614 0.002426573414965140
0.001819199142974411 -0.000928386869167903 0.002454227758383451
0.001912853336130560 -0.000907914192804753 0.002473229101288882
0.002039121627780732 -0.000937697601829276 0.002548923142638150
0.001959256254505584 -0.000749382955752183 0.002766639405453135
0.001983259002413945 -0.000794331528617696 0.002708449382089167
0.000865688641245388 -0.000099710889368542 0.002522229311069169
0.001041481729875277 -0.000193618970126185 0.002661897911705863
0.001400649915706490 -0.000471843604925859 0.002253875107314753
0.001437224595819160 -0.000516192739320664 0.002174914367109380
0.001678266596333809 -0.000502201571473666 0.002937793975786855
0.001959490480338148 -0.000987577602990403 0.002975737759173500
0.001947108293785688 -0.001025199362265634 0.002859191870251745
0.001786601072188923 -0.000551431764565514 0.002929853009329603
0.002405993407340384 -0.000827412598610564 0.002478521325094454
0.002389990350020985 -0.000772909795231197 0.002451199711231688
0.001928546113882332 -0.000966552436917191 0.002558353823049954
0.001657821520119083 -0.000456346405697062 0.003268403593170428
0.001908759648140310 -0.000932311701005902 0.003081640758126308
0.001967950362919752 -0.000870815406873891 0.003037486546164417
0.001626692973088816 -0.000603590683052435 0.003615942220563207
0.001111610503743857 -0.001870080319831553 0.002691036480476361
0.002306139340388819 -0.000696008147523784 0.002630441381601698
0.002396317202217922 -0.000696969387071932 0.002639103171203960
0.002425800531437352 -0.000847141425971092 0.002605291452273856
0.002415793048302460 -0.000857279518582900 0.002538527296146457
0.001188178572204689 -0.000584585715557515 0.003803278855256479
0.001160252950609743 -0.000212201210973409 0.002989839054376501
0.000544355946879558 0.000896596882435819 0.003886480247212196
0.001278871046479531 -0.000807558798982804 0.002032274003854795
0.001373956571635944 -0.000732243924237898 0.001976903516320563
0.001890363237238423 -0.000607673421022831 0.002929517189829816
0.001760524554547952 -0.000880507713180731 0.003422340487997270
0.001847805878139687 -0.000998014456756068 0.003188594362188852
0.001914630815708849 -0.000961951239356250 0.003209466581929716
0.001954210837548915 -0.000929829868408349 0.003129230531131304
0.001979920443141396 -0.000857492353138497 0.003109230799946098
0.002499230539525926 -0.000837474592553198 0.002605866520533151
0.002492214654941271 -0.000846102839527234 0.002540582898226472
0.002486701391539687 -0.000817691836087164 0.002481202484058692
0.002466226593129648 -0.000766021489904980 0.002457217570667232
0.002443461307033928 -0.000718051013753431 0.002472185952175645
0.002501956065750605 -0.000803718644433786 0.002644998556019124
0.002489807235287411 -0.000754435001103388 0.002657398592891110
0.002461470630506906 -0.000698789126501434 0.002636815823432332
0.002562632278972020 -0.000793712438147026 0.002646931027664376
0.002574160655579519 -0.000826235539507678 0.002607115604317651
0.002630659087683053 -0.000782475595358798 0.002479694494955634
0.002570034316037653 -0.000808606412772182 0.002485932345174423
0.002606604976903754 -0.000814003998125030 0.002511410360407152
0.002646494054167479 -0.000804428965638865 0.002507739184063871
0.002694632185824946 -0.000794650100445381 0.002513572291456929
0.002682175022788580 -0.000765523972323508 0.002491485184121056
0.002599680829391287 -0.000827423817186284 0.002546252619241180
0.002646992356698416 -0.000820742629899527 0.002551423803706484
0.002645057805052733 -0.000814554810756313 0.002596938758472408
0.002692706632751396 -0.000807791334650210 0.002602636629520572
0.002697821462930861 -0.000813997315949969 0.002557923534148054
0.002605350764400343 -0.000823111440417593 0.002584648047547135
0.002558234293802750 -0.000836409861358881 0.002542971731751798
0.002726138477058855 -0.000760301703828097 0.002517761726335405
0.002728251536046345 -0.000788787823378564 0.002524118744730373
0.002741772730741776 -0.000801894062848674 0.002561204810367083
0.002752328717575579 -0.000770096509157497 0.002566452812817117
0.002533402870679531 -0.000759318716033174 0.002463781986849023
0.002607210620822011 -0.000744795047031283 0.002475143597996527
0.002668297154748898 -0.000731611542752292 0.002495531752393043
0.002716274808753893 -0.000727459547674863 0.002526123104744482
0.002595100624029860 -0.000706947058405765 0.002495156068026094
0.002658724849935777 -0.000703221095795325 0.002519613034630747
0.002698761316259650 -0.000703692009748891 0.002546745262830953
0.002594121537405267 -0.000680523639637330 0.002535691859946004
0.002655994718356313 -0.000685557639355120 0.002552424255026390
0.002499302668876710 -0.000682442762445630 0.002520301685247378
0.002508040676868034 -0.000714486989490670 0.002478448369716836
0.002686033727004231 -0.000693263567628089 0.002563690177775572
0.002738417907850517 -0.000736805449775258 0.002576285638097939
0.002633815194284097 -0.000803481950173478 0.002629020924664283
0.002689592618439565 -0.000790802029254488 0.002631199184614249
0.002626301406224835 -0.000778034554330696 0.002651046240832180
0.002683892579981494 -0.000764342730560050 0.002647229693439842
0.002736770620006924 -0.000781637929968807 0.002616665356076803
0.002733040361918937 -0.000804090233892811 0.002599921659975673
0.002431123006459899 -0.000680845316229690 0.002516319198692012
0.002440970249681487 -0.000676292470396682 0.002581931780911167
0.002505671559357179 -0.000674810942116747 0.002584377581211706
0.002595418661272611 -0.000670316579280105 0.002594238656221684
0.002521377359197617 -0.000699135504600000 0.002636643557755480
0.002549334410303370 -0.000748599008105577 0.002657443723934378
0.002616135127001588 -0.000742597047745380 0.002655964251443742
0.002602780725328876 -0.000699580795501945 0.002641471019946677
0.002673261322749239 -0.000732690748417006 0.002647790319091589
0.002664545227330257 -0.000703060117331262 0.002632493680774334
0.002661313236513369 -0.000685561786343467 0.002594674192455255
0.002709933482889712 -0.000723955774500213 0.002626069727113368
0.002727575822146137 -0.000751650816752891 0.002625275213118395
0.002718350755649385 -0.000714244042458731 0.002585548714346141
0.002693619257034909 -0.000707242821243064 0.002619062744696421
0.002694000173292391 -0.000699420206887829 0.002590966007494158
0.002383411451421112 -0.000740345003170399 0.002908631298417551
0.002379542107920450 -0.000724496998001642 0.002975435183986837
0.002291881887836537 -0.000721564836771823 0.002957062605394796
0.002299829597335884 -0.000748804973570382 0.002887500573959343
0.002398402181259446 -0.000907112650998827 0.002862071057790930
0.002396139423681332 -0.000837512614720059 0.002839264568232284
0.002320342218558995 -0.000859159372955308 0.002823500239016482
0.002323266935147339 -0.000928825135055150 0.002850517186378324
0.002392479968787979 -0.000939597189083894 0.002933087877281362
0.002318156283717251 -0.000961001714294913 0.002925822565843021
0.002234908811056465 -0.000947445911361094 0.002833734117314301
0.002229010488076467 -0.000870116895068760 0.002806141922814535
0.002066815254620643 -0.000854266578807358 0.002786924508122690
0.002075798073537209 -0.000945776070928783 0.002802205640951239
0.002023591853274601 -0.000674609101381554 0.003010579897368765
0.002052482800209312 -0.000761054037340511 0.003046428349017468
0.002391471104856484 -0.000779371341205796 0.002860203250024707
0.002312432725818680 -0.000797683595770358 0.002841125986780672
0.002208659130150966 -0.000785197184181225 0.003048962654116620
0.002196379039417598 -0.000718286787782110 0.003012175039849455
0.002297425889676640 -0.000741304667776661 0.003019523648914974
0.002306303462196718 -0.000795714050421656 0.003056900583434512
0.002026365055484197 -0.000696536980297922 0.002844831445522159
0.002012880648645367 -0.000655318137132113 0.002928235769004096
0.002049972801613395 -0.000770855623990069 0.002802821083444931
0.002220300780431190 -0.000869670767322025 0.003052994063238782
0.002226997659435094 -0.000942189098253770 0.003006700931812117
0.002075965453014251 -0.000956728319099554 0.002989073754679677
0.002070867450106809 -0.000863379888865409 0.003041788577987567
0.002214366182813242 -0.000793294332735736 0.002824395920026324
0.002186477426539917 -0.000694904322405178 0.002945307125219954
0.002197841471049601 -0.000729371618354085 0.002871314894736761
0.002229774848542194 -0.000977193213023549 0.002915896787516722
0.002314957115033248 -0.000924635908921432 0.003015544834327442
0.002495363011763789 -0.000849753331134725 0.003063993945524859
0.002391260897147735 -0.000856284633020901 0.003059932621251618
0.002387399559137018 -0.000795831888853771 0.003068458423545928
0.002496003843667318 -0.000793639778027284 0.003077862393194324
0.002312434863579085 -0.000860298720241629 0.003056423401783308
0.002390870066030530 -0.000911869396104081 0.003016632330586957
0.002500397329290259 -0.000733100920157883 0.002932698941238300
0.002498193795708307 -0.000724845964869144 0.002998025750399994
0.002504819928114028 -0.000763816275409230 0.002884871261008312
0.002077475778848531 -0.001002256714663331 0.002888102349720996
0.002504660071060812 -0.000882775032756617 0.002879553504491471
0.002505982494711466 -0.000815367450695058 0.002863882043917220
0.002382515136477098 -0.000744539993859480 0.003035011135613772
0.002494085297624245 -0.000743856867437409 0.003053003332754370
0.002493972817016166 -0.000898321725523412 0.003021375022051115
0.002494549914534393 -0.000918971538185696 0.002944206374195649
0.002579638124014781 -0.000883264565378595 0.003029601896043605
0.002583277076757019 -0.000900493426782059 0.002959351536685929
0.002592714463698446 -0.000868579728231864 0.002897624214701069
0.002585229986706458 -0.000805313648326336 0.002883392119266916
0.002576658514184109 -0.000761186213606954 0.002904423903836546
0.002577910936955743 -0.000843354194904465 0.003068816802489848
0.002572622549354192 -0.000795957763599247 0.003081223937189284
0.002563914439862710 -0.000748516988439807 0.003060105004456358
0.002657051073585859 -0.000836694081304876 0.003079258903771226
0.002670643145153399 -0.000873413941701416 0.003044758485680184
0.002812753278977932 -0.000827059648919968 0.002942848628763219
0.002751400409910551 -0.000840144681287984 0.002923119349692262
0.002758507664525321 -0.000861106437592755 0.002954190580971657
0.002815561649822560 -0.000858322067468610 0.002962590508530026
0.002683146732663890 -0.000861964291203547 0.002919172227211976
0.002717758452201112 -0.000871201618450872 0.002952926537676398
0.002710858235269239 -0.000881338493785370 0.002988809085327792
0.002758367084992581 -0.000880493310590857 0.002999051922069860
0.002750190834556566 -0.000869422196164480 0.003043045911591628
0.002806650650634497 -0.000869809018707707 0.003055542104297573
0.002817710542544618 -0.000882598677903865 0.003009098686021268
0.002708932865102268 -0.000874547522189261 0.003028067271852928
0.002857420718041443 -0.000855619265383020 0.002977814590029140
0.002859853744238644 -0.000826441314880234 0.002978356023049450
0.002662177569521950 -0.000890487211973034 0.002976988526024185
0.002658035570523353 -0.000806570318891749 0.002897698404979094
0.002735302380961287 -0.000797054799886118 0.002915956555037528
0.002802738776352213 -0.000788720239408487 0.002948029315698956
0.002850867351156193 -0.000790476864112466 0.002989871045468908
0.002724271827312123 -0.000756413163291556 0.002940050065972147
0.002793581370746486 -0.000757460285919013 0.002970190638119548
0.002834554934698808 -0.000766450547185307 0.003005517761434291
0.002717069681411730 -0.000729721237366897 0.002982905413062138
0.002788105288917078 -0.000739401889322311 0.003004431746954932
0.002626355740936928 -0.000734384023294357 0.002961760040992169
0.002639118668445959 -0.000761846311108912 0.002917340561618478
0.002820298053836486 -0.000753653469667199 0.003019264821015312
0.002881874817845586 -0.000842925941171897 0.003028419929271880
0.002871200684813066 -0.000807246256314027 0.003037401637914217
0.002873520622079807 -0.000878421039622128 0.003017073189627490
0.002739576358311024 -0.000851282087008310 0.003066725812466107
0.002800719557797211 -0.000846509549504267 0.003077772575231024
0.002731753023395955 -0.000830597081553305 0.003090340414743697
0.002798174458988982 -0.000826011743313410 0.003096381092516716
0.002855538454865333 -0.000848783933945833 0.003072657922125840
0.002851808540681020 -0.000871598427328586 0.003057791879704723
0.002568613776600417 -0.000735594922380803 0.002948473267526322
0.002564174842405139 -0.000729686419693726 0.003007471047650110
0.002620887891576654 -0.000725322391746253 0.003020080236052049
0.002712569653358506 -0.000722969402528851 0.003040458979817784
0.002621806876495883 -0.000747902901287953 0.003069329678121588
0.002641700458821144 -0.000794952133660221 0.003089258599650301
0.002720757305809427 -0.000794132639783295 0.003098540493082200
0.002711186889162768 -0.000750576217573640 0.003084356386147983
0.002788372590259886 -0.000793987472812489 0.003098672906756929
0.002779677842094644 -0.000758466712270548 0.003086627792849858
0.002780755789530986 -0.000736309323303558 0.003050091685929166
0.002833789361478357 -0.000789969680536654 0.003083311006063078
0.002850455114095331 -0.000820230289009929 0.003083253134829817
0.002847586498839470 -0.000777294238450653 0.003044917149316934
0.002816337962584028 -0.000766183040551580 0.003077591526030219
0.002821199196150644 -0.000756566650415349 0.003049418474545393
0.002272323076462888 -0.000727624923612620 0.003254059423188572
0.002252276185384178 -0.000689790726717603 0.003308498120341541
0.002181711093793109 -0.000690568120079786 0.003287036276929470
0.002204959873957757 -0.000729171365857288 0.003232457415804429
0.002285365668917628 -0.000872945709573762 0.003253486631295590
0.002291390369961329 -0.000832317951983399 0.003230668204900978
0.002224365998979282 -0.000843123742895364 0.003203589441144520
0.002211856796269656 -0.000892233629267969 0.003224299351626778
0.002271818214750252 -0.000891905764680993 0.003309366429852327
0.002192415332374863 -0.000911564703736634 0.003285513014677901
0.002137814228638999 -0.000904528263037660 0.003196094900164012
0.002153609956601387 -0.000844149495638177 0.003175528621171362
0.002041802326448467 -0.000840698121866878 0.003141661682290108
0.002029242622957315 -0.000915580954036142 0.003160437630098638
0.002288221899727215 -0.000781071072980640 0.003232094007687202
0.002221740845757749 -0.000786429268825964 0.003206696589632223
0.002087847146403317 -0.000722462674105934 0.003362141753092078
0.002085750985590484 -0.000670485888802258 0.003328912728046627
0.002169239101006934 -0.000692269612196960 0.003344686568299900
0.002168374216113972 -0.000734421993003340 0.003376876944670198
0.001988292353070841 -0.000689195746806539 0.003169570543201903
0.001956611633315730 -0.000639213781167295 0.003233753048620946
0.002024316261525744 -0.000766064694704877 0.003143714146582406
0.002093522504362871 -0.000802351139015793 0.003370581867659946
0.002098510508209310 -0.000886676275742717 0.003336948760635427
0.001980816903926900 -0.000887006188689341 0.003310372257002591
0.001969168190002091 -0.000793230030474068 0.003340738092449497
0.002149655135925640 -0.000779126760855524 0.003180053563109046
0.002100287890497922 -0.000666989189090219 0.003265005940577929
0.002127030241752781 -0.000713188119523857 0.003206093477213937
0.002112846435996548 -0.000925461422961321 0.003261634014151383
0.002175471800446229 -0.000872091033622802 0.003357086128130708
0.002356532473183975 -0.000791966868329323 0.003428095414853699
0.002242373570538761 -0.000792815058743815 0.003405905948857583
0.002238225972278986 -0.000729513413026675 0.003400598414267078
0.002352592207294038 -0.000737272320278230 0.003429155755439695
0.002169450513734500 -0.000798262526123318 0.003388686922436912
0.002254988257568287 -0.000858101976050306 0.003374054366199009
0.002373000062151653 -0.000715801150574379 0.003290978319161171
0.002357596044528377 -0.000688343179015649 0.003343044858957284
0.002386827420809493 -0.000764121320403482 0.003268137659922234
0.002003108584861280 -0.000941919175323119 0.003233441968341437
0.001955118724488510 -0.000697561310890686 0.003339658874584971
0.002392607015522947 -0.000849820145631406 0.003285065483043728
0.002394264948605210 -0.000811633013350938 0.003264817487418917
0.002239236121779767 -0.000692256414254778 0.003366286650583515
0.002348044462421324 -0.000695769175338935 0.003398209513244953
0.002365797325766369 -0.000845175214168412 0.003397220727258242
0.002378655729843176 -0.000872590510118513 0.003335769609387027
0.002441577409124119 -0.000837685986271633 0.003417349616178726
0.002455345730410451 -0.000859535268190144 0.003357025406921207
0.002471456608180786 -0.000839506036597862 0.003306440539017802
0.002467578231490385 -0.000797757092839394 0.003288353402864300
0.002453957202993230 -0.000753899599264792 0.003294041284322721
0.002434493341610388 -0.000787644623745471 0.003445876783093768
0.002427877316560032 -0.000741577121926804 0.003443308336522550
0.002415303443685936 -0.000701842763627648 0.003413262765514405
0.002490901858025609 -0.000782667314445364 0.003462696529802415
0.002510627573795306 -0.000826935896431153 0.003434515964533257
0.002666734137605256 -0.000804660964661075 0.003355245313009777
0.002612902379445854 -0.000811333969730564 0.003336113211085947
0.002612583714686344 -0.000822611964501354 0.003361637931952595
0.002663814929680756 -0.000823128346519517 0.003375132390765140
0.002545937876344044 -0.000831727696750127 0.003328637804880972
0.002572726773577724 -0.000833041935941183 0.003355467774171989
0.002556649798000942 -0.000842548054537286 0.003387216167291611
0.002603914859072435 -0.000840330817902992 0.003401892422423041
0.002582196960184481 -0.000820505609247227 0.003442009563979929
0.002631666029009556 -0.000818706989875480 0.003456871354746448
0.002654677272823497 -0.000837258450763269 0.003416457473200294
0.002547716253456669 -0.000833066692756865 0.003423824116206387
0.002696358762999992 -0.000821655351076808 0.003391751368091774
0.002705454553124279 -0.000802549844551529 0.003384996319740337
0.002516306946455078 -0.000849426883057189 0.003375347816258065
0.002530619347809382 -0.000790621253446336 0.003304027157723656
0.002599742777060175 -0.000778646433639072 0.003321661247418659
0.002660764791698559 -0.000771686424809571 0.003347903698769208
0.002695873741258467 -0.000768339637562292 0.003383732886053458
0.002582168039529812 -0.000740772892996177 0.003330465088949150
