VERSION .7
FIELDS x y z
SIZE 4 4 4
TYPE F F F
COUNT 1 1 1
WIDTH 740
HEIGHT 1
VIEWPOINT 0 0 0 1 0 0 0
POINTS 740
DATA ascii
-0.000531130878721509 -0.001001667620350531 -0.000703246578968537
-0.000567222409098064 -0.001150695514727677 -0.000500332421345899
-0.000720061919291764 -0.001096620294031046 -0.000588543815589725
-0.000584939043483512 -0.001255567264363441 -0.000400793555308000
-0.000523528238889364 -0.001213164947642616 -0.000562600167188012
-0.000173869318902093 -0.000943278730285501 -0.001105573600511000
-0.000296729799707312 -0.001020986036031577 -0.001108650798049919
-0.000393597948072167 -0.001063829502845559 -0.000982402344050693
-0.000158957854033654 -0.000997609140761391 -0.000959581007320607
-0.000134744936863913 -0.000940710468883867 -0.001072892732146910
-0.000218919782518004 -0.000914966695754690 -0.000833568228648180
-0.000410818895329651 -0.000801549048465395 -0.001105384987363217
-0.000243530564644702 -0.000934654694365670 -0.001159861378199372
-0.000302678601268672 -0.000995476633325686 -0.000848502497113212
-0.000229581214643987 -0.000985988520851800 -0.000949368952945868
-0.000400938497487187 -0.001074430161504564 -0.000640777247156548
-0.000626559325495916 -0.001128278108918299 -0.000333934254598428
-0.000616039151773134 -0.001088887502528883 -0.000456185416347287
-0.000631305010568741 -0.001076940446596032 -0.000638468425725094
-0.000482991575097486 -0.001150598384607771 -0.000305521088255157
-0.000737035132734274 -0.001161742213978011 -0.000485265731082477
-0.000569905038775062 -0.001150476859213094 -0.000316319054243378
-0.000614484629898453 -0.001214028164905824 -0.000486186177060691
-0.000885536169206909 -0.001031594129129419 -0.000464822991374019
-0.000872532040783884 -0.001025692562532190 -0.000471621286180015
-0.000898004071787800 -0.001024837350255302 -0.000232710006527716
-0.000863259562129438 -0.001027884511764837 -0.000174856768079930
-0.000301698552541166 -0.000986990094228369 -0.001166386540380100
-0.000436075221325303 -0.000984199936333034 -0.001130510079034551
-0.000134941806040032 -0.001033910662023764 -0.001045347572999678
-0.000053171197914813 -0.001019162269929590 -0.001088865917600117
-0.000292611580652902 -0.001120591188301492 -0.000152462568291549
-0.000135506816370366 -0.001110563148360409 -0.000304489448042020
-0.000303219261174176 -0.001120052600055396 -0.000365725327985192
-0.000371988076654531 -0.001148143674357562 -0.000299611126960420
-0.000642150697153453 -0.001013387642992292 -0.001074579173602923
-0.000673753591063940 -0.001038667470937460 -0.001039748715786493
-0.000426792375200271 -0.001044310467315846 -0.001165478235590160
-0.000448115803221690 -0.001021513926528533 -0.001152489465250087
0.000018333194774251 -0.001060011118055021 -0.000987527173297554
0.000074676708446857 -0.001038822755857310 -0.000948958521872465
-0.000044587294550353 -0.001033556259675359 -0.001124702616522768
-0.000028669657229548 -0.001033394296510831 -0.001104516431987643
-0.000320357947564848 -0.001072741476878310 -0.000029327886269878
-0.000258131385249555 -0.001019134742261609 -0.000176402718014161
-0.000183173930915794 -0.001082003749119998 -0.000283479555369351
-0.000303150337024746 -0.001108810793679673 -0.000076751869831734
-0.000800230377116393 -0.001108458383443609 -0.000403869748600176
-0.000848740995141410 -0.001052624905296819 -0.000278646588302772
-0.000568097379710210 -0.001076390685265020 -0.000103173633486757
-0.000593837004521060 -0.001110334372170154 -0.000208571599241951
-0.000785125062936461 -0.001085830174678671 -0.000628717637605855
-0.000902310090159219 -0.001073542978911377 -0.000491884276111116
-0.000227281868585503 -0.000962681441983954 -0.000962093550000732
-0.000432764134686287 -0.000960895382902146 -0.001002190131324143
-0.000429686621907910 -0.000970427301082690 -0.001066570713327846
-0.000229669023836667 -0.000968510587022690 -0.001060033853579008
0.000062237699788454 -0.001029010465452230 -0.000820693761478789
0.000033205394719236 -0.000987958890144046 -0.000669674761233692
-0.000033112060577545 -0.000997186727281721 -0.000879265217046670
-0.000077749934051150 -0.001028288791038117 -0.001099707134826784
-0.000411134511939154 -0.001018323562102082 -0.000083008423317382
-0.000330602027461494 -0.001031794867969190 -0.000106778285026994
-0.000267926989759691 -0.001021121588872822 -0.000180802846440050
-0.000381220731474940 -0.001039029356679495 -0.000099386298133669
-0.000901533854801796 -0.001020080126996622 -0.000330821204758548
-0.000719025037838798 -0.001009396310245316 -0.000120580702233796
-0.000637745279896009 -0.001037189277178038 -0.000047271976304406
-0.000832125430374970 -0.001029886111984687 -0.000540214725566003
-0.000719437566697911 -0.001013672310819359 -0.000573099368880570
-0.000830199192449264 -0.001020228009266101 -0.000478227389829274
-0.000334090898218323 -0.000945844906118697 -0.000907196939707115
-0.000527991077810728 -0.000960965846652721 -0.000863897043743260
-0.000235716838364890 -0.001011694244888423 -0.000759817297850706
-0.000078154238882225 -0.000995654795120159 -0.000741654136267294
-0.000041698517986158 -0.001037650092375609 -0.000608892007111107
-0.000198239535283402 -0.001049832388923656 -0.000650531003600697
-0.000114229264475214 -0.001054429472620987 -0.000255291137326427
-0.000217298206441795 -0.001121878964349389 -0.000341381187466352
-0.000203456092335371 -0.001097406377724267 -0.000512506127018941
-0.000088062891244236 -0.001055691425810595 -0.000410843291835193
-0.000219301218247025 -0.001117891450715698 -0.000168918183040934
-0.000259362918792677 -0.001120856822262807 -0.000188572487331043
-0.000241871622296695 -0.001074851749141766 -0.000183353226835751
-0.000427309434436104 -0.001083882293762000 -0.000127020021143090
-0.000774338429085029 -0.001029561108103163 -0.000213892060608787
-0.000947395064503072 -0.000289622498140451 -0.002306970697967420
-0.001400049033745490 -0.000364603802581439 -0.002856551133477224
-0.001125878356779164 -0.000732512274994641 -0.002000367808874522
-0.000976534102928871 -0.000705595708523327 -0.001572949685181860
-0.000832045492970049 -0.001176662557385669 -0.001243957534779790
-0.000927497036117458 -0.001200432458083156 -0.001100845920617776
-0.000825814280938493 -0.001288362545214089 -0.001289126205191890
-0.000788254711011246 -0.001242157515420836 -0.001309146095586075
-0.000815100783881119 -0.001307665636811846 -0.001222046726104775
-0.000676912426045723 -0.001313917645064235 -0.001045588095591821
-0.000784925417126087 -0.001299963942845962 -0.001144924103546423
-0.000713922388867869 -0.001267369360567748 -0.000858781648979644
-0.000664517362650718 -0.001214833895080728 -0.000931985588576454
-0.000327906419243247 -0.001074116256143414 -0.001162410962131544
-0.000610968943029259 -0.001017438857801007 -0.001078138260464924
-0.000333841873347204 -0.001015841481115958 -0.001224720874466953
-0.000564259899447917 -0.001030847991146227 -0.001070589339112812
-0.000797363178469942 -0.001024113345446440 -0.000993706200161312
-0.000789920426809953 -0.001013912209978231 -0.000980162735810012
-0.000621364494332015 -0.000990063019956791 -0.000936014741189145
-0.000681291727926880 -0.000991577175456719 -0.000978230107512947
-0.000563735060416591 -0.000985082445259127 -0.000826382857383023
-0.001257905642389973 -0.001155198414066830 -0.000521695035672435
-0.001451621541590094 -0.001200641478915457 -0.000151563203205835
-0.001553822148080043 -0.001312304858494790 0.000338076855682475
-0.001323851355357631 -0.001161035366123628 -0.000226475201448519
-0.001169168763782082 -0.000998632122988046 -0.000434301716943458
-0.001314331631820260 -0.000906553234296593 -0.000636309983526726
-0.001488854279290324 -0.001291407073267952 0.000184863065980766
-0.001335169003076076 -0.001547278478968357 0.000567655115172642
-0.000680924327066690 -0.001082133702222237 -0.001165356730045470
-0.000960092679002447 -0.000878208887845723 -0.001691250269447786
-0.001075997469140523 -0.000919050136344054 -0.001727037621958122
-0.001110335130919426 -0.000897653550264478 -0.001868449453904678
-0.000627682845550314 -0.001300616439075878 -0.001280523842445942
-0.000482932574126566 -0.001181644648515145 -0.001306253306608571
-0.000585952275726084 -0.001252819678851448 -0.001212985312076795
-0.000613458257424626 -0.001290077599395708 -0.001244515879286962
-0.000619391986663128 -0.001119446945533584 -0.000579339951103627
-0.000379772744234206 -0.001013539743771848 -0.001164077365625945
-0.000552153522594214 -0.001010875600292369 -0.001146921903896552
-0.000545302616093447 -0.001209129821799236 -0.000405055313376941
-0.000281086930408137 -0.001083804146585141 -0.000581823508696347
-0.000186259808452686 -0.001029866245147560 -0.000860804549226346
-0.000030433508365616 -0.001057101328511371 -0.000926764195733363
-0.000141288692482024 -0.001037556110029782 -0.000977249715254829
-0.000076089458577969 -0.001085862152565886 -0.000690220347414163
-0.000750035345866971 -0.001251032458958591 -0.001290975682124063
-0.000711145645631106 -0.001293153537842529 -0.001303862977982696
-0.000609339738841096 -0.001223478617883311 -0.001288365412251141
-0.000664146179042368 -0.001186960716118989 -0.001260287810020063
0.001855644518002417 0.000999635303048283 -0.002695655857765584
0.002130170809864232 0.001128561742258469 -0.002373620687984596
0.000229431222170002 0.003654498415212644 -0.000088512573121503
0.000199548543668176 0.004049851733801521 0.000091932332564266
0.001144926338177224 0.003533279497472390 0.000658430813339319
0.001184435375307864 0.003206290193548485 0.000164074681777685
0.001155199328426016 0.002926753026303121 -0.000236808906892573
0.000392866743871934 0.003281356906640199 -0.000269298288526094
0.001121472587648549 0.002787927205526352 -0.000543010817548620
0.000523025624827269 0.003030900670121890 -0.000427521203681397
0.000675734666142386 0.001862512370569467 -0.000407418108771787
0.000512530744870081 0.001585306203811504 -0.000385094412117008
0.000113934208271121 0.003981941876360471 0.002901746848260395
0.000083434150408040 0.003625043513699620 0.002959473678829672
0.000554502409841142 0.003742774171496258 0.002885040522341383
-0.000025612682089769 0.001139502242688482 -0.000178389916253435
-0.000908621712372219 0.000126915576180484 -0.000603404155156951
-0.000866380740894925 -0.000095796064013736 -0.000210927308011167
-0.000960876174522289 -0.000635290692740857 0.000739210851219866
-0.000969544935046644 -0.001999263751105819 0.001988624457798860
-0.000772926780013408 -0.001894518930677790 0.001622365143818756
-0.000745416047346750 -0.001665361608201997 0.000776154317262971
-0.000763635979884033 -0.001103523875746179 -0.000383139040401396
0.000869193973279536 0.001043544572369867 -0.003385579301393470
0.000870386209215724 0.001149589258246698 -0.003252761149820469
-0.000091402016801647 0.000368171253896401 -0.000599460350245375
-0.000246185711479033 0.000305322042896980 -0.000897575246653771
-0.000272697238119894 -0.000028794497418412 -0.000403195451374306
-0.000094828332158991 0.000001671679444817 -0.000103532928779492
-0.000102238052033988 -0.000177404183410302 0.000199427216462644
-0.000213196893020112 -0.000241007375216951 -0.000045294663103313
0.000044894210863603 -0.001791438820212532 0.001853918587229173
-0.000035532042432462 -0.001428355221266910 0.001522042321092139
-0.001071823215233253 -0.000437189113949573 -0.001325571637848581
-0.000952729389081729 -0.000320890323902702 -0.001640790623432412
-0.001243279053113065 -0.000838924289622331 -0.000872548777153991
-0.001288390941252973 -0.001185268374127541 -0.000432072025783343
-0.001337206762353388 -0.001298247965362539 -0.000129890375034410
-0.001210196375238068 -0.001236670322758350 -0.000418604343890127
-0.001200028080696585 -0.001142587392851998 -0.000696583696255621
-0.002524816774568235 0.000250618141186842 -0.001692046645764299
-0.001915606033232501 -0.000057669475751245 -0.001558868200441191
-0.001597508877855476 0.000310038958468828 -0.003114609112944295
0.000683238445902114 -0.000236173475773010 -0.000589474564068765
0.000785020739345648 -0.000583536310572353 -0.000804080195898330
0.000775747712580582 -0.000313459891149366 -0.000792404126571359
0.000683051614612903 -0.000045791684525761 -0.000532362539976883
0.000424569327207014 0.000880875873973394 -0.002487036797535318
0.000750282496155113 0.001062649944173122 -0.002803341371885170
0.001001845810120005 -0.000802365442175462 0.001861487314188682
0.000797553713456380 -0.000742208521120947 0.000417601027121431
0.000816468992145137 -0.000914087728319460 0.000541816447168143
0.001119961724156359 -0.000452918397913557 0.000868903317087076
0.001083125631540988 -0.000333156921647039 0.000693197294401571
0.000815115186438755 -0.000264808859369752 -0.000942938379378447
0.000526599620023217 -0.000401396938583117 -0.000707394579870452
0.000480752387282989 -0.000732053744533138 -0.000391709005097037
0.000648046492994620 -0.000644210696834546 -0.000495773847211312
-0.000336522351991899 0.000647837571424969 -0.002739138354649466
-0.000129990146145345 0.000582316003689683 -0.002851278157536387
0.000376297781276050 0.000760485169270093 -0.003538899316359358
0.000463626218863153 0.000949217776733613 -0.003445216725466444
0.000799181634029431 0.000938086533519256 -0.003419050139233883
0.000722515106684707 0.000768925959533445 -0.003481730946841962
0.000976318720528989 0.001010418085700644 -0.002695458808698917
0.001352159828515936 0.001094228675089524 -0.002599080906698213
-0.000018845577059044 0.004043014593351237 0.000242285980300096
0.000077834317628967 0.004084495484509948 0.000231714420294247
0.000171305012239244 0.003898365440496401 0.000669669548984954
0.000110747760909357 0.003879732512257506 0.000582219931748993
0.000842670117050530 -0.000186951013101836 -0.000851560238360012
0.000844265291473963 -0.000333247394042032 -0.000960473836357022
0.000977373252177622 -0.000490747260377630 -0.001073577942330344
0.000975388099943607 -0.000326301115486994 -0.001013178215815384
-0.002299541724887435 0.000739165518797903 -0.001825795431726853
-0.002687439526647043 0.000573412940789696 -0.001665854139009400
0.002743564584380243 0.001224317864584533 -0.001789076927557540
0.002396099083939517 0.001262339906758862 -0.001812190132444562
0.002320215210346739 0.001054527971695960 -0.002343019156628548
0.002591302080656294 0.001092383498460146 -0.002382726889017258
0.002818649055091487 0.001238152406160947 -0.001757579585315977
0.002810482094699020 0.001327554901553102 -0.001673699361395783
0.002686823592072502 0.001267872315141515 -0.001844572102587034
0.000777241372047669 0.000970769460899029 -0.001324026841153286
0.001034568921196270 0.001258655612800582 -0.001639750435103860
0.000971250412353193 0.001120566404493693 -0.001776194789891334
-0.001154676562583455 -0.001108048311717834 -0.000477757424798864
-0.001557483435611077 -0.001206360555710038 0.001206711447309184
-0.001280532147604072 -0.001026515783482202 0.001505758102007586
-0.000989392501071369 -0.000488951724433089 -0.001200317552076606
-0.000710207154059164 -0.000539320362087211 -0.001197580658518745
0.001226716709997079 -0.001335268367745329 0.002861225323958333
0.001257148371992711 -0.001324304189590546 0.002566813740573371
0.000836806744558377 -0.000286581569793226 -0.000610973292854642
0.000845413645069253 0.000224933254733781 -0.000618053958478234
0.001713428296453130 0.001464607213020163 -0.001863597027159793
0.001367073790958348 0.001486148121078356 -0.001736938883610299
0.001050320709026643 0.001517779430470073 -0.001346550317755892
0.001297837701092634 0.001554891690266949 -0.001378256987696188
0.001896697854225617 0.001419114243741961 -0.002272576500179158
0.001455475827645683 0.001434268644716176 -0.002059042828949963
0.001500875846612481 0.001592828751810392 0.001746786090605143
0.001458315258949431 0.001035591102584625 0.001779626900192993
0.001413232564017482 0.000937197082399102 0.001785420637227287
0.001386242188489073 0.001662607368251843 0.001778612633193069
0.001366897578736803 0.002000016837975587 0.001888790863368248
0.001300262480481743 0.001265871315151305 0.001863589025902547
0.001254618116170809 0.001570716250244660 0.002066986189216434
0.001344946595013843 0.002193385100567649 0.002042564257884417
0.000969604479707178 -0.000319131774803380 0.002046506898163782
0.000937441174863233 -0.000003582445563256 0.002530699811721731
0.000741460637144575 0.000138116579158853 0.002824319913125281
0.000462073490473382 0.000304059946730175 0.002930770599508596
0.000045328533217332 -0.001048297308524553 0.001112916432926163
-0.000023489445690439 -0.001016797456682399 0.001034263406263916
-0.000161773028442387 -0.000708801380144176 0.000661664137270545
0.000007081170143822 -0.000670489924087501 0.000754728969142417
-0.000002233101765471 -0.000634298757494169 0.000931816816264568
-0.000006743734565749 -0.000903405410909697 0.001198384478947005
0.001085439189621638 -0.001192538603797026 0.003081355209524107
0.000858358781624652 -0.001096056835091836 0.003400853785643555
0.000566596845445014 -0.000487387337431595 0.003550224892797976
0.000420837219347877 0.000088353577674765 0.000188219524849649
0.000584879865539939 -0.000061374026546272 0.000143818873197835
0.000759053558282218 -0.001788984786166081 0.001807028614520137
0.000947716796607182 -0.001616963878354672 0.002136652033832276
0.000439911929351987 0.000193971127992249 0.000080085745948340
0.000543572314328637 0.000047370089058032 0.000031379635375357
0.001247151745595583 -0.000205997724587073 0.001139900317395617
0.001326473673222213 -0.000081073808198030 0.001210388701329973
0.001151173217573321 -0.000696448371357695 0.000861280327752443
0.001062902883730066 -0.001419298740377292 0.003149183398500808
0.000853848455333995 -0.001448448552196403 0.003444102687131548
-0.002260057979573080 0.000432340652939191 -0.001918591584797175
-0.001850599428904310 -0.000003973330889941 -0.001815619658593991
0.002126066807118537 0.001707240033529203 -0.000859554670648532
0.001961547885902709 0.001863220877637224 -0.000363290377150724
-0.000365838457618744 0.002944474163973103 0.002785104892047403
-0.000340194701362034 0.002671175058631169 0.002766060427663611
0.000081901234464641 0.002659280498970789 0.002835798379434325
0.000127684847238912 0.003019189316712808 0.002881430243163607
-0.000340173403627546 0.003812996660288363 0.002952867595369681
-0.000369435371318395 0.003510268085617654 0.002914923158542889
0.000220313278141502 -0.001410445785612571 0.003713155102363873
0.000441901747989030 0.002173817626145692 0.002352250988151636
0.000527302084090981 0.002354818881098899 0.002698390845020040
-0.000013063829293372 0.002369999014899468 0.002793599387835555
-0.000010830611892154 0.002237742181135798 0.002356091419685412
-0.000057586318464185 0.001992030725230605 0.000755473243217584
-0.000064858391864691 0.001898353741404680 0.000280347945429354
-0.000926667166061929 -0.001135079535636126 0.001670872642012114
-0.000840563935817637 -0.001341866644517937 0.001663264545780051
0.000895571946488121 -0.000080386399468490 0.000767458266180779
0.000881690979532298 -0.000042074076759384 0.000532923827529745
0.000959465687744613 0.000084528133548398 0.000734189949742528
0.000945483038179033 0.000151409574801607 0.000903952239216929
0.001123283915581092 0.002085611988711889 0.001479302899475307
0.000827299399903590 0.002124000122159585 0.002063328158035948
0.001247900549292751 0.002248265351813872 -0.000019791049010290
0.000900820947845345 0.002166141380230206 -0.000563387548519365
0.000032829664639717 0.004043723284564553 0.001829327813164409
0.000197671987156641 0.004011396418077090 0.000246236323345932
0.000356429369447762 0.003855972497567178 0.000739586729278074
0.000231336335542040 0.003948222127142466 0.000225662555842115
0.000510809535182044 0.003786976053749735 0.000797426704223502
-0.000634801364362426 0.000302897803397641 -0.002122611961890507
-0.000831002994114862 -0.000465520672518097 -0.001373017822381955
0.001105535394468727 0.000112511566965799 -0.000866314564162840
0.001096410450591849 0.000019645502088876 -0.000888139710388890
0.001133697496934212 0.000105254656215126 -0.001106993441548818
0.001145948114744688 0.000184775238408723 -0.001037203345860896
-0.001283325710223266 -0.000979075256204031 -0.001488793419922495
-0.001053593698837268 -0.000937933752324620 -0.001259198673827575
-0.001171760930698533 0.000451450307007758 -0.003294947150074470
-0.000771609262763122 0.000154058489590039 -0.002868873230357764
-0.000219380840101580 -0.000055472238843876 -0.002853881678298937
-0.000277211171569031 0.000230198655823095 -0.003236997656106459
-0.000706455015036213 -0.001198240254512941 -0.001052956972480435
-0.000904476631784206 -0.001036033761352537 -0.000815897132145440
-0.000762340461348965 -0.001233457116456916 -0.001158075003964028
-0.000711930165598691 -0.001181182873252799 -0.001219622936564105
-0.000532960201242003 -0.001161568011126362 -0.000859760713972096
-0.000369990209539585 -0.001100898733181446 -0.001003401028020218
-0.000775205926477958 -0.001016013963509482 -0.000981451541284166
-0.000871081418093763 -0.001038437000843152 -0.000813409554253604
-0.000792818141484140 -0.001020008658034535 -0.000806055810807149
-0.000622381888524542 -0.000982118717195759 -0.000631624672225713
-0.000683101105518099 -0.001014571142790387 -0.000762160334896811
0.000430132784947376 0.000303243103979592 -0.000029641260063575
0.000428339297189964 0.000310978902116028 -0.000150898845683014
0.000578383949607454 0.000117202592833215 -0.000101357374477359
0.000573885756842255 0.000180274221877780 -0.000020988454682076
0.000768152168078643 -0.000676413140793206 -0.000334008906945547
0.000674622895275029 -0.000561138348400384 -0.000342787203508183
0.000647819544721410 -0.000378151372398247 -0.000062675762541257
0.000727093020363258 -0.000508039740324382 0.000029252784416578
0.000605452791825643 -0.000290432739633710 -0.000339565059722254
0.000734458523661281 -0.000660172279130254 -0.000632030253640767
0.000645963455802267 -0.000323534369545216 -0.000524738321571746
0.000601676858578351 0.000173712824006759 -0.000389950098061087
0.000735755620937763 -0.000067170605512628 -0.000657534881840541
0.000686858077740569 -0.000006287175555016 -0.000521176893264111
0.000565870135101863 0.000218905499356372 -0.000369930948617229
0.000429761309977681 0.000306929813237636 -0.000282108523150230
0.000501091112791132 0.000275691419823343 -0.000382159901459164
0.000640704345286783 0.000101180708963761 -0.000421393025322408
0.000583824877779062 0.000090441795995044 -0.000296371323024802
0.000470829346631669 0.000002712335102687 0.000357044523049804
0.000547822629127736 -0.000200857072940014 0.000481411901630924
0.000574381213490782 -0.000272524291026291 0.000233029473541405
0.000488317096170958 -0.000051767422026070 0.000133604490804868
0.000891391208151276 -0.000061985978759980 0.000336700582021530
0.000936859224349492 0.000010168267391231 0.000420635884773219
0.000750826365048605 0.001370130095792325 0.000495300507312989
0.000630845181740143 0.001083486247448486 0.000527002674144424
0.000769761979374134 0.000822771266624378 0.001086764739337451
0.000999945168348970 0.001163130339622480 0.001024686086546916
0.000724246689708219 -0.000087418008417796 0.000419675998471770
0.000671192849031912 -0.000150390921830705 0.000165034077039592
0.000765208785440325 -0.000131628562570025 0.000250143693338298
0.000795707483797520 -0.000138333209069392 0.000441412054945880
0.000678235044176874 -0.000337790050205738 0.000648108287994445
0.000831586455171361 -0.000446547876973381 0.000899749812825017
0.000807425178703205 -0.000460844978748081 0.000539308008890643
0.000691275754876631 -0.000450057788089099 0.000353660647122820
0.000887673655690494 -0.000674544230808542 -0.001077209108241206
0.000839542403232078 -0.000598582240724402 -0.000985809878902403
0.000923798370449800 0.000119955291414021 0.001166549248006518
0.000921284392339046 -0.000182795289649241 0.001054586418125199
0.001127047432459157 0.002488430842046461 -0.000213263172869027
0.001438427793398403 0.001696896962700985 -0.001420187391701571
0.001630712378170622 0.001814808218527017 -0.001485867398972674
-0.000267090099747034 0.004107580239095862 -0.000217662418011449
-0.000132516618688399 0.003849017260715171 -0.000159933618484645
0.001589535371499350 0.002367106377179970 -0.001030407384422250
0.001856931244757997 0.002361873121088604 -0.000709814464736800
-0.000052341580149666 0.003642149746582473 -0.000150259786594763
-0.000127856293148027 0.003737413737143239 -0.000207687515058048
0.001374847289173744 0.003520281931056974 0.002402355451562455
0.000513785308944573 -0.000081802656254540 0.003285489166131627
0.000891559953318039 -0.000327824746609346 0.000942405445817371
0.000881137775482946 -0.000193936213175918 0.000738864612626152
0.000979012859493157 -0.000302657181407620 -0.001122920127862299
0.000967324685003057 -0.000442491441787262 -0.001201056709981430
0.000895543758900262 -0.000096050233282749 -0.001241847872037404
0.000948244468111404 -0.000215086111073243 -0.001252034933942859
0.001212095258941031 0.000966263017269129 -0.002672074841071492
0.001580272426985967 0.001020221729610354 -0.002619076685496314
0.001422503845689419 0.000963465886176053 -0.002567278644442547
0.001072705497669335 0.000906788744494148 -0.002670965686277342
0.001116850636962876 0.000200510556580544 -0.000615230671556514
0.001128223226739090 0.000183955220371352 -0.000680123050575139
0.001038667963117419 0.000176385976122034 -0.000436463722316170
0.001009081179420843 0.000191848061533552 -0.000390567771667865
0.001001595229317726 0.000142791723787824 -0.000155319074498779
0.000991168049661923 0.000105615011828864 0.000138747562164975
0.000916003056717467 0.000047637823114978 0.000131793487862669
0.000972902797152083 0.000162533932802110 -0.000107332905154476
-0.002083131369286800 0.000683147880785199 -0.001816398735897272
-0.002141164452871848 0.000833514570928733 -0.001719962190292621
0.000042011418021905 0.000997141349291270 -0.001099851483711983
0.000144435740696361 0.000939297000605077 -0.001270382363572731
-0.000969200742808429 0.000185453246134567 -0.001156319864670895
-0.001552370451589563 -0.001350920119844850 0.000411671401923066
-0.001790878025347628 -0.001426862909856868 0.001005688311545661
-0.001528791898775604 -0.001029002842250773 -0.001711310814252645
-0.001853872908996609 0.000597649868768785 -0.001907502542956650
-0.001555980001572705 -0.001061995419664953 -0.001841169885268315
-0.001702914687198195 -0.001053131200061581 -0.001796029124685331
-0.001564022974679170 -0.000629955067321298 -0.002359496825936787
-0.001654650772424598 -0.000604727021022983 -0.002602272944673626
-0.001630284980287931 -0.000416295717316732 -0.002520236977675576
-0.001482328311482050 -0.000586199441524728 -0.002385048592891667
-0.001557593548428494 -0.000399743592589826 -0.002399741640974397
-0.001421671537489883 -0.000573723349799519 -0.002305932983958100
-0.000591634130909411 -0.000997250503700413 -0.001317193796942856
0.000072877040947612 -0.001028174038424749 -0.000800451438384357
0.000015189459217497 -0.001016018466261006 -0.000397672660131576
0.000094632013482263 -0.001018010135899216 -0.000613558374266109
0.000012705104938388 -0.001049056943573743 -0.000548856672752247
-0.000146866940514166 -0.001109876043123046 -0.000495274532247602
-0.000070781431126332 -0.001093554297516839 -0.000393482901453446
-0.000609313875815975 -0.001075764656992105 0.000042852748504063
0.000037841015938587 -0.001000305929624823 -0.000424219128081138
-0.000048252595332826 -0.001001500215753663 -0.000199873121752525
-0.000100074223839746 -0.001029954545712633 -0.000237927055191657
-0.000136528018169048 -0.001022588465447151 -0.000174441591483237
-0.001041429047794394 -0.001054447665169365 -0.000939626418528371
-0.000111154825792644 0.000702264108541234 -0.003289971651517411
-0.001482574273255620 -0.000456740453186065 -0.001536909933294440
-0.001407811176458171 -0.000505071550101450 -0.001291219393641683
-0.001499571894737656 -0.001147878642326101 0.000194488046325253
-0.001490624810334079 -0.000907053848469524 -0.000748999879040430
0.001580617115515513 0.002107241982706702 0.000490977770559876
0.001458239864294135 0.002236299043126403 0.001143693394799350
0.001706628803747242 0.002546613885101306 0.001167583790992815
0.001683101935125076 0.002302668651381286 0.000892543394339988
0.001895167754617849 0.002119630264791009 0.000433611222650086
0.002015181895996377 0.002351774989482423 0.000746243143620601
0.002375238842516959 0.001723476962000548 -0.000419284640166211
0.002138856519399321 0.001744811156567157 -0.000638078064460624
0.002260616205666849 0.001482910678921131 -0.001206192554172783
0.002607110249721377 0.001428117347615407 -0.001065953076867333
0.002217892980253948 0.001313714304060401 -0.001924657965574564
0.002222343299735209 0.001543594455133042 -0.001436708656910088
0.001250368958829833 0.000976128237151755 -0.003359878727372836
0.001275684112811542 0.001012162998737711 -0.003331678352820415
0.001742599980245478 0.001018715145874677 -0.003101548343166532
0.001643521134650302 0.000997778979606271 -0.003056060995563525
-0.001052273584654371 -0.001076455860354359 0.001584518054775954
-0.001405649923319933 -0.001161245288919404 -0.000233283971208721
-0.001079243439191633 -0.001051531600603080 -0.000664873573504000
-0.001257917341264023 -0.001070579046183503 -0.000777601239860462
-0.001306528693149726 -0.000856442902764825 -0.000993125983450070
0.000883386057242650 0.000325017176486343 -0.000251280628396889
0.001502131255402106 0.000950000617219938 -0.002683083217260213
0.001246979225631814 0.000831792813605148 -0.002506705935114646
0.000838183820793210 0.000077312546978391 0.000058021058043404
0.000936478392268377 0.000271183832542041 -0.000141655299661417
0.000883320760306707 -0.000251905653169874 0.001060273480861817
0.001031653664787906 0.000215569852201246 0.000871801261570769
0.001174508722486199 0.000507974473487988 0.001289080585489462
0.001054209677364814 0.000390037610166061 0.001139241681262214
-0.001156207233972699 0.000073955432125211 -0.001323056660449178
-0.001433488448177681 -0.000160357986351071 -0.001341682537839990
-0.001366932955163779 0.000096539333320591 -0.001703627189828912
-0.000642766170331603 0.000024866855570638 -0.002469337516398213
-0.000275890750837704 0.000043605635532520 -0.002687444859578159
-0.001645013064052760 -0.001329576061468807 0.000834899998835421
-0.001294311203462863 -0.001125484776811553 -0.001563319441710807
-0.001437664775537071 -0.001079074935701244 -0.001710743989496105
-0.001121036527065698 -0.001159691328594606 -0.001413624370006622
-0.000904839692488726 -0.001270783781050309 -0.001177218507473121
-0.000591477917848628 -0.001221987562005301 -0.000840793543001817
-0.000392872407360403 -0.001121535225119517 -0.000700200265530014
-0.000135556775777776 -0.000952522580851044 -0.000782101344312173
-0.000118779923066075 -0.000925411864086719 -0.001045533234133077
-0.000375776100202291 -0.001028719306099289 -0.001157741591973462
-0.000113827539830161 -0.000996845658940456 -0.001128140878034430
-0.000149748803064135 -0.001037505693291429 -0.001186393182415692
-0.000218118539545640 -0.001034103989307933 -0.001220193408268379
-0.000132816395688331 -0.000998522474656172 -0.001057678406278524
-0.000253326659286341 -0.001050257599882771 -0.001199963600992779
-0.000121873970930692 -0.000981384887097091 -0.000844265175740707
-0.000252897938928943 -0.000933184919909342 -0.000797084156704474
-0.000790466269616259 -0.000022028841223801 -0.001863761367334394
-0.000649680071920963 0.000099546868098786 -0.002234790351909352
0.001083522113911655 -0.000223254036270349 0.001187874476364541
0.000856347407298901 0.001726814078783124 -0.000911091124428573
0.000658887855814722 0.001595838027339586 -0.000905720618123623
0.000888642181090696 0.000130066663229444 0.001146617302101719
-0.000126712184021022 0.000902794170120060 -0.002996972048926929
-0.000058387430358109 0.000892642794736115 -0.002622148108252370
0.000737183058107392 -0.000043939837906892 -0.000250615019880949
0.000759817547238655 0.000024394392288781 -0.000134663659950874
0.000877925178376608 -0.000153941865404410 0.000580870196528257
0.000456410006181770 0.001456819780019158 -0.000091663562718239
0.000597942249014201 0.001113799080879040 0.000102489238090317
-0.000216072008631045 0.000777532385873586 -0.000604533230795531
-0.000276421391853115 0.000742889039509055 -0.000644017905449054
-0.000338857010405455 0.000762663090685036 -0.000800674585438228
-0.000279590909231158 0.000802905711292948 -0.000773140181630805
-0.000147310454861060 0.000725646157034874 -0.000445097202691918
-0.000224135133985994 0.000676338984393806 -0.000508751277916659
-0.000171834100170535 0.000131178299407885 0.000035962222284069
-0.000264789148250439 0.000117790280070881 -0.000075906969187579
-0.000169164598674881 0.000166943064337468 0.000072197058625027
-0.000082620927377684 0.000170569784987990 0.000178754924859412
-0.000246117715244486 0.000559567446744984 -0.000362245327709901
-0.000168168368029529 0.000588850574061758 -0.000318826656920265
-0.000108258429550749 0.000464948628447935 -0.000109729060200267
-0.000212344777372418 0.000420371789423160 -0.000138655563178750
-0.000370693055614891 0.000130499616139993 -0.000360948412454443
-0.000283516229637247 0.000202303044839127 -0.000281601155876547
-0.000380182301974765 0.000242119869120481 -0.000543201826108849
-0.000449041863742881 0.000178026946445473 -0.000606227768180801
0.000132196417911959 0.000500997836580647 0.000116714293372582
0.000182301649870846 0.000502507718111209 0.000121796366696482
0.000102585119258662 0.000473385124578578 0.000026776857132547
0.000065583257406717 0.000458498042772647 0.000035215244253111
-0.000075707730065111 0.000873775994166139 -0.000463905998846764
-0.000152688194254140 0.000832039334804311 -0.000553188969839374
-0.000197720746457499 0.000909014243673085 -0.000725392409466469
-0.000131986056246233 0.000961436580013813 -0.000634352284196729
0.000121518605607680 0.000586336800698960 0.000146900205683237
0.000188696299376427 0.000655796319268007 0.000284860282579059
0.000173944435148079 0.000530761376658650 0.000259259844749848
0.000123784600894145 0.000441240307175890 0.000273199710427509
-0.000083911720410556 0.000980586075015808 -0.000509591252729304
-0.000044944389234530 0.000918933721313056 -0.000360503180150479
-0.000071936912152310 0.000479211621845575 -0.000023593359210277
0.000027878485059586 0.000537705410360448 0.000077366621655623
0.000014236320757459 0.000374573277416570 0.000212042283703821
-0.000072039036526614 0.000315143244904159 0.000136460175761954
-0.000505248794863482 0.000100145906858117 -0.000554550404493875
-0.000454043360883681 0.000082694819300057 -0.000466662446690465
-0.000517387981842111 0.000133110167629578 -0.000671216613186766
-0.000569468784478796 0.000161051208669846 -0.000748789215308497
-0.000226216377139743 0.000235718200799378 0.000003252391850212
-0.000116004156162497 0.000283247301250613 0.000052964828441622
-0.000280739655845319 0.000157444787123401 -0.000031806648715248
-0.000527674260921292 0.000668386012151132 -0.000921911975543085
-0.000478595088776145 0.000693628483038281 -0.000927852183349392
-0.000399808723687152 0.000890799898730242 -0.000954966188454535
-0.000448684331596379 0.000832199647791611 -0.000968494581692155
0.000021442531636213 0.000224876659284082 0.000204862838316506
-0.000067301049247447 0.000124646709978047 0.000153076562428213
-0.000004603388856081 0.000240181376845264 0.000261082335658538
0.000088941629806851 0.000340653848567034 0.000318185779790556
0.000002276340517937 0.000824978526504733 -0.000269236017705873
-0.000074135678430468 0.000772852684565419 -0.000361411928627182
-0.000436691622840812 0.000698044903652588 -0.000888428659362791
-0.000388012608377551 0.000729429631299197 -0.000814728543814836
-0.000282201825832168 0.000831764477358976 -0.000792105548699499
-0.000334311225247597 0.000866759050129411 -0.000883069420621427
-0.000404929506273200 0.000638118330360458 -0.000661305858251687
-0.000470573358171858 0.000581799765037597 -0.000752600979899397
-0.000477712056416313 0.000430470341437714 -0.000725518404531425
-0.000416253442174445 0.000513798864891961 -0.000684676486561755
0.000028524219651559 0.000375350640883264 0.000032592056644387
0.000095024403412158 0.000421449384075472 0.000182454744880517
-0.000182884750924007 0.000269141143435203 -0.000223164342731763
-0.000085662080267425 0.000395979174312710 -0.000174539388579835
-0.000178766204746249 0.000368061384703720 -0.000385849490998600
-0.000268464786361707 0.000319530411844576 -0.000478288122642519
0.000141278157792522 0.001019798800361538 0.000285486091853234
0.000202299464746686 0.000920464268330205 0.000272747688134407
0.000134172414612901 0.000998209451427128 -0.000003590940798114
0.000074636926234014 0.001097628389877027 0.000072164485272715
0.000028354626217005 0.001026897311700954 -0.000249626585268951
-0.000000632343748236 0.001110559827216767 -0.000196975285066945
-0.000030721094940259 0.000891621554365271 -0.000273159787386388
-0.000080599393788298 0.000990139073762773 -0.000245932953528452
-0.000146713271598765 0.000911761958046873 -0.000419188321401364
-0.000068753663500122 0.000828926117570833 -0.000465619449556165
-0.000327452737684842 0.000697211075853334 -0.000543087610014310
-0.000370257101297901 0.000657471943679618 -0.000610288144026461
-0.000360867422293877 0.000569057080241706 -0.000683994711161383
-0.000258321685624151 0.000616423662945912 -0.000586204532818920
-0.000069330497875426 0.000540813969929026 -0.000430812800457410
-0.000172984350998449 0.000583387003412813 -0.000413120505555042
-0.000090524839069140 0.000540663556569382 -0.000230105889854361
-0.000002002168118457 0.000545794481775004 -0.000204163147352572
0.000484008848908971 0.000136430417712494 -0.000397021475905438
0.000365156486636837 0.000272851155143104 -0.000369665743681231
0.000368295093377433 0.000289707636469944 -0.000297441057170823
0.000457449251116205 0.000155982597094478 -0.000272851150895879
0.000340660916007830 0.000434362921562000 0.000025580007868821
0.000378039841646804 0.000516271009662740 0.000202165322653816
0.000388345233535704 0.000354299293700949 0.000301041758208185
0.000396320955782010 0.000313968169495230 0.000088029534290872
0.000214746552521311 0.000628359847358597 0.000239564468121906
0.000177437862346705 0.000774788347982872 0.000135329669551170
0.000083426172611678 0.000874886858250663 0.000048022879076815
0.000140966816514427 0.000692671284312887 0.000071816126557416
-0.000290116980375196 0.000760923851017174 -0.000477807969311961
-0.000171848872583617 0.000627009263329197 -0.000565645051136178
0.000273045129984243 0.000496336771302047 -0.000011566798712722
0.000153796792335488 0.000457846725459712 -0.000059962603951038
0.000187509841004610 0.000557227592051566 0.000040993030669529
0.000315570387461601 0.000558439950957551 0.000109214797311081
0.000356989943103053 0.000735962588399514 0.000240163261606984
0.000283896375660427 0.000723571317729061 0.000127632033987021
0.000236116299614389 0.000865447043505603 0.000127904756851310
0.000272526829098354 0.000776814535546562 0.000095354008118598
0.000153384468236418 0.000894683763526516 0.000066158886785982
0.000148261341255562 0.000989285708215454 0.000093494602364067
0.000072565766521406 0.001072595478105561 0.000007304644096009
0.000047822389655650 0.000974632560105743 0.000000964045318545
-0.000266913206745429 0.000748388344261788 -0.000507122033993818
-0.000165171396109671 0.000750505941795291 -0.000551078230719537
-0.000165522261369161 0.000830991759435010 -0.000581409068166072
-0.000245296747230506 0.000813533029466955 -0.000496525645696168
0.000078247209816229 0.000408411974378407 -0.000284774568257035
0.000025846464849673 0.000372685743887296 -0.000475171174586183
0.000151589604341185 0.000750032369406806 0.000091616723121448
0.000241138152543454 0.000671651908654495 0.000002672279935272
0.000167590189078990 0.000592146471813353 0.000047928873142516
-0.000013673521486612 0.001087441064302709 -0.000175937639248363
0.000486068356555744 0.000253696054379057 -0.000433557151888772
0.000590905359297895 0.000061263783633522 -0.000460915036894450
0.000572334219698336 0.000240862591645478 -0.000381326699523606
0.000436977326671283 0.000381822135753081 -0.000414542000558407
0.000583412946714148 -0.000114052551910818 -0.000396268304696829
0.000538014481135053 -0.000125967196807252 -0.000251436564873392
0.000407383678974204 0.000187270196240166 0.000329189919530753
0.000463969163140759 0.000149628518012557 0.000122684414451132
0.000428730480902694 0.000270338922992483 0.000514089418549814
0.000420033458508456 0.000436082864438599 0.000466679930901260
0.000387915302908658 0.000470765016631738 0.000530040723971977
0.000413912368212936 0.000315111750212272 0.000515075851130704
0.000313146089966439 0.000335880730233707 0.000227288481817247
0.000244114464355989 0.000435409489068899 0.000074828882852937
0.000129060512587879 0.000704876477384780 -0.000053775305757894
0.000254004607117038 0.000473439127785217 -0.000033106459464614
0.000367597429413350 0.000393884530671225 -0.000156986474402478
0.000261292024167302 0.000447831255704827 -0.000228791737956567
-0.000517221010457482 0.000565630071133254 -0.000868965495231344
-0.000558080674900955 0.000524875987311418 -0.000902936870973982
-0.000591090392967444 0.000379761806096544 -0.000860314145846482
-0.000540257277662092 0.000395237682921189 -0.000780606684125542
-0.000567294343615244 0.000256547395697874 -0.000829862841681440
-0.000615959884264908 0.000261581705820707 -0.000852334869597292
0.000011117091078678 0.000708666803905867 -0.000149375331214057
-0.000095538116519577 0.000631669978326240 -0.000241274585008552
-0.000297689455137975 0.000636519710464317 -0.000538122400834866
0.000153957482240653 0.000871476442516866 0.000297363565682268
0.000200501983104670 0.000763241498512458 0.000321221118045950
-0.000043801232866644 0.000805631639088094 -0.000614988872397874
0.000090420037270302 0.000717777955232208 -0.000593547071567637
0.000050156296713814 0.000756345121855655 -0.000464595724430602
-0.000284747617999804 0.000831703108677887 -0.000523878898374284
-0.000215235771684133 0.000922612112797943 -0.000470030862397727
-0.000211591595822957 0.000893529086158323 -0.000476676669945907
-0.000292949255573127 0.000798199628923263 -0.000582811241515926
0.000055897309919447 0.000680878737688161 -0.000502449681734797
0.000219222092628474 0.000622288589606354 -0.000407110687493239
0.000157754812776768 0.000657981220339717 -0.000516217267304562
-0.000005905937525569 0.000743053119874779 -0.000599639891608983
0.000276010725122960 0.000508662585905153 0.000314258483526594
0.000269406518999270 0.000663068322457524 0.000168820016929628
0.000309268819016233 0.000509971562758815 -0.000351922142691211
0.000257304641632425 0.000483841223119628 -0.000186794842438537
0.000132931407469122 0.000638443811194553 -0.000213152695549343
0.000161436335148797 0.000657874517022779 -0.000425456147908065
0.000049705946668838 0.000782695682546548 -0.000251862788482960
0.000362208248775090 0.000467835974271877 -0.000432184168111460
0.000213396496397625 0.000624517746422563 -0.000523114503908741
0.000366871918515301 0.000356904939098168 0.000405238787435593
0.000360875979393850 0.000510538127337224 -0.000443900569332480
0.000514533496821418 0.000347032653091098 -0.000410106193266376
0.000423511192630085 0.000422865859973294 -0.000455842609445669
0.000283444793479330 0.000544241965156613 -0.000488080267131416
-0.000509565817884959 0.000262127015911917 -0.000761674312652969
-0.000435361172030601 0.000306399391937099 -0.000710007831262114
0.000038402138295824 0.000513036079443763 -0.000108923675543847
-0.000005942932105656 0.000455828019503915 -0.000111924249665280
0.000106974729988611 0.000450628157553563 -0.000208044544280236
-0.000280464681371612 0.000080689601555724 -0.000126225497426824
-0.000371603786854024 0.000051044603086201 -0.000250871755968252
-0.000062104569761173 0.000205112991301543 0.000009077315185915
-0.000155519763277501 0.000134056852680508 -0.000042825485816388
-0.000332387782097312 0.000775197112088329 -0.000706331060716401
0.000166414489721971 0.000359169976763302 -0.000543446877607660
-0.000052596491845997 0.000494841295910474 -0.000550193762867302
0.000214069625051958 0.000279882173967006 -0.000477171001879905
0.000495402530155541 0.000024238774781292 -0.000074119476158531
0.000424751319650242 0.000206600712090149 -0.000085563694673431
-0.000164880616151758 0.000670778771842335 -0.000571853045260216
0.000556301215347900 -0.000162976763539395 -0.000090499792688447
-0.000080640122593495 0.001008462162591078 -0.000288541576389335
0.000059386326673815 0.000852716144095094 -0.000100884998354779
-0.000009336591152109 0.000972704867929028 -0.000129862157426993
-0.000394627170899296 0.000717924936660812 -0.000842002521872465
0.000090166429042909 0.000744089286430668 -0.000046232349650262
0.000193199569604057 0.000699917807976057 0.000228866083985089
0.000180550412225936 0.000559218025201236 0.000182695665015128
0.000339522790793636 0.000382811661378230 -0.000436754698044627
0.000274820090129866 0.000524519366849727 -0.000423942093494950
0.000115082658085613 0.000580002840612720 -0.000476207418737653
0.000414453031343694 0.000584787079120398 0.000361722638806379
0.000407531836513428 0.000645753951978274 0.000401587186046933
-0.000450253727630807 0.000076276812453188 -0.000334904296364644
0.000409220513966701 0.000652505463953155 0.000169713655357873
-0.000025147797160128 0.000999603445140821 -0.000310592948501071
-0.000068525024039611 0.000168571394555261 -0.000361187099490028
0.000070170200169029 0.000375229035660632 -0.000297216024019116
0.000083858216305141 0.000219513247713798 -0.000118823558703153
0.002051939746983771 0.002375134068852050 -0.000372971122205810
0.001804435089662020 0.003206947613546223 0.001538685767616629
0.002058269728085278 0.002882016839432163 0.000960322949902834
0.001026156515777793 0.001930121488728363 -0.000970860968621181
0.001249618545524628 0.002133433021761966 -0.001046706086209253
0.000715761116483116 0.001189793663110484 -0.000397472378737653
0.000543638849138759 0.001470324953465535 -0.000634021442705394
0.001058868937290895 0.002684605434567383 -0.000783271997329442
0.000748111778427507 -0.002262232668779255 0.001918452230034386
0.000757037902522577 -0.002239627450473840 0.001821468933678015
0.000621850499881076 -0.002301223224990245 0.002111832233337119
-0.000152542141044303 0.002127403772958407 0.001596292862881494
-0.000167425647950258 0.001948805566567602 0.000018108585436987
-0.000175486526950256 0.001587710624767587 -0.000000087995528212
0.000864197517600213 -0.002509323807084709 0.002100965952720171
0.000861159698074479 -0.002510793104529963 0.002008426509251799
0.000880373626041431 -0.002496454847902535 0.002084892539155825
0.000860670382322227 -0.002521355821758695 0.002101800943709519
0.000861947356127265 -0.002519397656991709 0.002096282574348937
0.000654639656243111 -0.002336466536124028 0.002126230754449638
0.000781844050116741 -0.002285465235134753 0.001824558621747934
0.000822727678149317 -0.002284786578637348 0.001772963135598868
0.000767898254534042 -0.002329407005010609 0.002042506825691202
0.000148268206294182 0.000461728191863893 -0.002294273617242749
0.000010353376807911 0.000374811140872142 -0.002066959510781958
-0.000040642673233684 0.000274253251381899 -0.001926737780327056
-0.000029776604877571 0.000382895540088033 -0.002111895349520207
-0.000103506493123053 0.000368377391365547 -0.002094839822719657
-0.000099014000095402 0.000328606571748048 -0.001779969627303965
-0.000031037982586983 0.000388177163664878 -0.002337344459968976
-0.000803131907993558 0.000701277770807704 -0.002098976284869982
-0.000809593013305174 0.000593554661898043 -0.001951397898326448
-0.001015063906682735 0.000529562947742145 -0.001970907841274451
-0.000894090431684510 0.000674837981122386 -0.002009473686531713
-0.000926561603518077 0.000569733421043491 -0.001989001571292238
