VERSION .7
FIELDS x y z
SIZE 4 4 4
TYPE F F F
COUNT 1 1 1
WIDTH 736
HEIGHT 1
VIEWPOINT 0 0 0 1 0 0 0
POINTS 736
DATA ascii
-0.000991710803782753 -0.000186392339025664 -0.000573875839214072
-0.000798970787828639 -0.000232900216495486 -0.000868255342328872
-0.001644505906679726 -0.000038379068763584 -0.000081723154964137
-0.001778524768090951 -0.000033128631033129 0.000028216787824536
-0.001500484844833763 -0.000037374537833059 0.000059400444936696
-0.001374648187291173 -0.000039712360971267 -0.000092438738957309
-0.001092732641429524 -0.000009505855761949 0.000120449599334883
-0.001090897234430035 -0.000023927434487479 0.000293918561994636
-0.001064255557547606 -0.000035784989466793 0.000826139000715910
-0.001228771275512046 -0.000069885688368352 0.000652889115360888
-0.001385550677875740 -0.000027902520562669 0.000559980445988577
-0.001172018599310860 -0.000035732720057744 0.000770694845997502
-0.000437656097194865 0.001160624544654121 0.000097234014226914
-0.000373692125925417 0.001583053560724557 0.000849263807701201
-0.000441506418981227 0.001015975256531189 0.000885591261973036
-0.000644804034895571 0.000935497726208181 0.000820101868806468
-0.000828046242999698 0.000780096921837305 0.000774896195924314
-0.001831653163023281 -0.000473574606334071 -0.000453577115585438
-0.001879972080352276 -0.000092236463065504 -0.000389980933933361
-0.001877735348585955 -0.000020211888653529 -0.000322017066357261
-0.001865723510993574 0.000100304290793185 -0.000474833708088244
-0.001828100930764809 0.000098094936422474 -0.000326806800147036
-0.001711527343449123 -0.000152465629989316 -0.000388894675397934
-0.002082840069899649 0.000628604333800967 0.000233783348527544
-0.002049779934376713 0.000641917224595519 0.000237639252022964
-0.002197458702124651 0.000733344099313842 0.000430384026807953
-0.000482252195257161 0.000735966573669737 0.000112947222717533
-0.000638239956605577 0.000718710229214264 0.000311550193774430
-0.000587968094868778 0.000734136474696039 0.000351636512736434
-0.000572454671848832 0.001512944049689970 0.001145941857151446
-0.000439929516573296 0.001339102489362586 0.000560694989392924
-0.000425008821442116 0.000638212151638177 0.000409068223658421
-0.000607146016750582 0.000533641430063401 0.000426941670131747
-0.000750279454199414 0.000441284486882920 0.000457689880442838
-0.000899982243621115 0.000338832198661614 0.000498161594769347
-0.000987024968475823 0.000208009069163954 0.000509996305998840
-0.001018267023983057 0.000091958480756433 0.000500419637137389
-0.001097633198608636 0.000021256034775770 0.000512020790278958
-0.001108282566448684 -0.000089671351966957 0.000515849086854537
-0.000964725259134915 -0.000206280403321405 0.000433191003982105
-0.000987939535219667 -0.000240281968403212 0.000512653206527957
-0.001046630515559935 -0.000159067179508913 0.000510208073078604
-0.000837027890808955 -0.000326036103586606 0.000456999267002858
-0.000695012044649234 -0.000429944183265255 0.000310942193110248
-0.000795073639782458 -0.000506317626162423 0.000292323026628241
-0.000951168677732261 -0.000548473839085830 0.000390229702734992
-0.000982347012267571 -0.000614109948852402 0.000411678966850734
-0.000519633844774558 0.001499519062459399 0.001184503688952318
-0.000531078379341746 0.001501752949127323 0.001193020071729094
-0.001668482979357111 -0.000017771579151204 0.000640470587889574
-0.001942918480052677 -0.000120520611710285 -0.000244970187998046
-0.002012116412083346 -0.000183652101780815 -0.000278116321445875
-0.001742280889644970 -0.000016375464329511 -0.000399727223797306
-0.001598752826593041 0.000112112852075021 -0.000733911614919129
-0.001674393287734484 0.000202533392224368 -0.000733929266775124
-0.001783160327461072 -0.000354286560671484 -0.000375270006616832
-0.001915224301867729 0.000173383672866961 -0.000206411421983834
-0.001814447640547787 0.000263991751779761 -0.000251488888004945
-0.000075226842051012 -0.000060292966772884 -0.000612831449409708
-0.000044441935734468 -0.000030330087431104 -0.000537735153835073
0.000081757706974582 -0.000098390716485655 -0.000507386665692680
0.000053861765596602 -0.000135565269857670 -0.000608483441688498
-0.000114338938367473 -0.000074679966277204 -0.000643113960277877
0.000023097982885400 -0.000154155699212231 -0.000681648698304547
-0.000173726398918067 -0.000242131621778540 -0.000283955268492533
-0.000182180020480933 -0.000176500086356199 -0.000311827030862171
-0.000048719763661003 -0.000188963785049114 -0.000335331857728023
-0.000037854724296931 -0.000224697112978052 -0.000299382352203065
0.000100513022705324 -0.000154627156155186 -0.000706932424641726
0.000080953268073652 -0.000125239795931211 -0.000614030319497698
-0.000036051768009608 -0.000106364069019299 -0.000576413489105716
-0.000020779524132977 -0.000111664863102442 -0.000666051101428847
-0.000122089704750479 -0.000210831274055273 -0.000433552975869538
-0.000110698721789080 -0.000209615272568266 -0.000479607853906797
-0.000239803808010061 -0.000166620413795555 -0.000503125699518968
-0.000266930440250779 -0.000208886796701906 -0.000446355467290757
-0.000668219140680041 -0.000014554933208783 -0.000252683551084461
-0.000654554783806964 -0.000028796563695611 -0.000244673405305136
-0.000756647196330411 0.000071319398341092 -0.000275896467277658
-0.000738174250101973 0.000026038218148281 -0.000282402605586200
-0.000341848232881711 0.000141439576258142 -0.000634321140317646
-0.000307000603871432 0.000097836014285567 -0.000604365069658106
-0.000175504405038836 0.000044556952981523 -0.000577906166657531
-0.000209799890518409 0.000045268625059070 -0.000611795009949269
-0.000456969531283869 0.000013037970269107 -0.000485824095340425
-0.000473298821175904 -0.000056214739657960 -0.000380568537702781
-0.000586765324750394 -0.000015512327027672 -0.000380010303816853
-0.000569590215109025 0.000039227494689077 -0.000504114346657303
-0.000451533924254442 0.000183009308576833 -0.000669133686288398
-0.000423721920437919 0.000152445157851810 -0.000633502439516092
-0.000175674021565943 -0.000069102603998330 -0.000535580845559397
-0.000181263525380925 -0.000121879108570658 -0.000401026497635654
-0.000334258663228633 -0.000095017912101355 -0.000380755933754440
-0.000334009514045919 -0.000024281908692105 -0.000512671924164923
0.000102966137859857 -0.000261208198581727 -0.000400460815533433
0.000126649448092372 -0.000247715102685287 -0.000390916037754890
0.000010162474897644 -0.000240912048906834 -0.000435453335382665
-0.000003133906146421 -0.000245142143207823 -0.000411970352218902
0.000073907446967811 -0.000143510539190486 -0.000482867049630423
0.000073420154156105 -0.000182903377052189 -0.000356174652802846
-0.000041336181165205 -0.000135559357556233 -0.000449975303322443
0.000225033397326894 -0.000143771186010432 -0.000360522396521439
0.000216982558839685 -0.000132099165541148 -0.000415029795048830
0.000107016825452746 -0.000099244692067720 -0.000454352926015141
0.000117710037510990 -0.000123804266975864 -0.000422216864033330
-0.000446998938082349 -0.000168759644196843 -0.000250816598350351
-0.000466811835083345 -0.000113612278894456 -0.000286871796246402
-0.000333264308024605 -0.000163813880814850 -0.000281419979057427
-0.000320045843437877 -0.000228231434294418 -0.000260689412845227
-0.000380256399428715 0.000083487033091609 -0.000620143867134720
-0.000253710479409088 0.000011041697644587 -0.000619472215438432
-0.000010509258056336 -0.000098001364515423 -0.000451605055145664
-0.000015284092252840 -0.000067126054032622 -0.000496468701376394
-0.000143951021089064 0.000005981735047084 -0.000531426815652547
-0.000117253271986559 -0.000076476166934218 -0.000450961834325066
-0.000260859869924372 -0.000018555975530685 -0.000470959151168073
-0.000311862617342719 -0.000010056791795157 -0.000449878154477765
-0.000164966693230780 -0.000070679055529124 -0.000438281638154707
-0.000124962108122284 -0.000051222863339705 -0.000474719494687169
-0.000555941601658250 -0.000092010268401346 -0.000262988977304023
-0.000540021436727742 -0.000122141735551398 -0.000280095475045889
-0.000399553949657648 -0.000140786784378554 -0.000416612564648484
-0.000376414055842084 -0.000127445555540409 -0.000509731368977431
-0.000521521592018005 -0.000073954634798146 -0.000459932106970769
-0.000524946067679778 -0.000046545507063446 -0.000353391088292511
-0.000725938095373207 0.000051077582054251 -0.000637352274583409
-0.000697324128015844 0.000102125001599085 -0.000700706347287517
-0.000600488235162105 0.000120345195842065 -0.000716397224968424
-0.000652129236068555 0.000083075916137280 -0.000661715510051517
-0.000562447269490820 0.000168493523916739 -0.000690522873844687
-0.000663134193749648 0.000159560575028879 -0.000693424913108414
-0.000848356876139904 0.000259440914950527 -0.000592770002791373
-0.000855210444970901 0.000233298244417701 -0.000487199840988097
-0.000786428239627740 0.000279351259119915 -0.000531679437394399
-0.000761906683246518 0.000291159050526438 -0.000678501149268831
-0.000588735101199614 0.000038709094933806 -0.000513540585875802
-0.000667342738021382 0.000085596651401792 -0.000383957310071184
-0.000472181105136675 0.000044036010866560 -0.000431623025889540
-0.000415626093418905 0.000014758916667337 -0.000502260729147805
-0.000815967709886426 0.000222752968396228 -0.000289275379462427
-0.000799692591665694 0.000287689715535813 -0.000244386362837894
-0.000668608750507714 0.000112546125158405 -0.000324678690417129
-0.000666842854962680 0.000106039127922790 -0.000350737842924847
-0.001240505442522377 0.000074399554106876 -0.000320555034426638
-0.001241757875550470 0.000043870119034411 -0.000299538755181778
-0.001160219974203713 0.000236156436447155 -0.000282900439059041
-0.001150142986037808 0.000332306250272350 -0.000249005636629450
-0.001110679439793922 -0.000014861319851769 -0.000325687531276572
-0.001215045016779664 -0.000102564323471661 -0.000276077142532431
-0.001251642409552794 -0.000116011812533333 -0.000175692154047326
-0.001137601464882244 -0.000044231221353387 -0.000267897692096959
-0.001077115964745247 0.000159879862800451 -0.000366666246525196
-0.000990614103456173 0.000292416495183525 -0.000450697157703576
-0.000941431003649675 0.000192783247207679 -0.000507935886743725
-0.000992532012321973 0.000084777541548093 -0.000468252447604010
-0.000758097368202237 0.000087029422976134 -0.000463770397870085
-0.000848638174704859 0.000166428227601499 -0.000383016328844930
-0.000997455103719279 0.000056585122920296 -0.000347903863494924
-0.000996668521245640 0.000002437888832206 -0.000335017734349244
-0.000857101434011441 0.000018280628949947 -0.000344564605298022
-0.000850094074370462 0.000071469273067013 -0.000325131124629911
-0.001059535378476137 0.000001295674869562 -0.000304494018796016
-0.000979049404199103 -0.000002989202646347 -0.000479774710846271
-0.000867810089650232 -0.000031953783091950 -0.000519803538075866
-0.000899175509806211 -0.000035443742189432 -0.000366185760640448
-0.000911517593563318 0.000024021831405440 -0.000519754725807246
-0.000890791477341609 0.000145447038380255 -0.000571079936327014
-0.000776110783413364 0.000071796012964182 -0.000615312602658004
-0.000820758010680634 0.000005203969161224 -0.000585190694882535
-0.000867387658311396 0.000145570269499291 -0.000337210243828802
-0.000792292832053232 0.000129279350303976 -0.000317936513252281
-0.000872521846665385 0.000188422941695327 -0.000274268259555037
-0.000933856117461118 0.000203605534504108 -0.000198397133232538
-0.000891887361502728 0.000319573473690295 -0.000259844181035536
-0.000899722881288823 0.000375345794025564 -0.000232518345038605
-0.000788397208750582 -0.000010877009250379 -0.000361090395874538
-0.000750908647643566 -0.000018301597516097 -0.000297520384880423
-0.000877098671467307 -0.000049158096639860 -0.000316422987846417
-0.000746669678429583 0.000161284609607045 -0.000636320128573330
-0.001210218537287797 0.000116733765075297 -0.000338164578473675
-0.001177933012617226 0.000149311858053082 -0.000330640784254033
-0.001305351633616831 0.000018258682010290 -0.000387003456076665
-0.001351436445864620 -0.000089169006877408 -0.000396700200024712
-0.001371272911819348 -0.000185750238943667 -0.000379522924924277
-0.001357388907520932 -0.000198859532798813 -0.000327188770547274
-0.001342943521945977 -0.000211055619963203 -0.000241055259754533
-0.001370535437768167 -0.000156895140210728 -0.000150060530103248
-0.001395353453393562 -0.000070413367344414 -0.000075504316569154
-0.001400967508358801 0.000048569761575376 -0.000106575846372718
-0.001287588512460483 0.000039019694796190 -0.000113226545174910
-0.001290227130351095 -0.000062894933761444 -0.000060873606837676
-0.001257225978711300 0.000268362775002998 -0.000268782313661806
-0.001170219132631765 0.000361225726097298 -0.000383773679846047
-0.000965657614680036 0.000325134146484501 -0.000524823410490474
-0.001123330655366718 0.000371689436202709 -0.000498625873430230
-0.001018072275575887 0.000166745288533455 -0.000313254619560724
-0.001132760337345614 0.000048075884127936 -0.000304241321955480
-0.000003650483435198 -0.000088222765668824 -0.000467660027385439
-0.000036019650245547 -0.000115659203674342 -0.000420510333041123
0.000090886842468704 -0.000152427537482390 -0.000379866978007580
0.000112431489189115 -0.000118312979811055 -0.000428263241450068
0.000173251942496673 -0.000202729405286289 -0.000298121281533380
0.000050321387986615 -0.000193231477434194 -0.000380681731879831
-0.000156316279581354 -0.000052314315511573 -0.000617052184304604
-0.000298840366193138 0.000004778536425481 -0.000588313782616408
0.000131145453437134 -0.000189908002582866 -0.000704839583788329
-0.000778151928241949 0.000017967718271920 -0.000503077001949339
-0.000675080951442511 0.000033716253908048 -0.000533155757821960
-0.000894144065922479 0.000188207581612336 -0.000405138061132319
-0.000937223362334184 0.000177236342601130 -0.000403744404593687
-0.000975578366144643 0.000193676856735838 -0.000416547451210914
-0.000684155315921992 0.000069961440147487 -0.000369145143529598
-0.000548420368072091 -0.000000579402885459 -0.000371440713847749
-0.000541037995094363 0.000184682273306566 -0.000547198525376815
-0.000696675140903562 0.000162662689522753 -0.000427044189081527
-0.000981522342907357 0.000240502574050321 -0.000125905387168067
-0.000939959754992955 0.000208060969253206 -0.000293460915150988
-0.001019567686157830 0.000198252859246671 -0.000310190022123759
-0.001054568625096482 0.000226304907268028 -0.000209989584784761
-0.001185661298692419 0.000083214458380642 -0.000248886417625863
-0.001070943928693070 0.000026426874656201 -0.000370354866457423
-0.001129031946910240 0.000175450435077143 -0.000455762354496363
-0.001028797812133460 0.000165032191718170 -0.000383156326021107
-0.000982028440916636 0.000282207248638312 -0.000490406693614380
-0.001092326640204678 0.000281521674037417 -0.000510305786995794
-0.000914286255552194 0.000263050166355077 -0.000525313534596395
-0.001168645082490979 0.000135188498121597 -0.000465177689281488
-0.001065966031736603 0.000177786976383308 -0.000420588352530700
-0.001352075025110247 0.000169916945264940 -0.000191168439590235
-0.001145606188807792 0.000142544059540388 -0.000336143544011114
-0.001105236531399076 0.000153349124143053 -0.000391413897401979
-0.001225268894526248 0.000074226949956356 -0.000461509024640672
-0.001268110853020206 0.000022606255643674 -0.000426154120086124
-0.000079904259292218 -0.000158185743108926 -0.000419603160121618
-0.000217657863902340 -0.000100233893778134 -0.000448333737991599
-0.000762415145913409 0.000164010077529879 -0.000252608647322075
-0.000652150064728467 0.000039615491281664 -0.000273613707266072
-0.000879114086095185 0.000206016571950403 -0.000290667816965484
-0.000148050180217327 -0.000197405521188953 -0.000324651476293641
-0.000011682792753541 -0.000186262558246685 -0.000328085942105172
-0.000427476946531588 -0.000202134837350108 -0.000291985396025763
-0.000291956707012945 -0.000226641113967343 -0.000320480167351171
-0.000245496859548636 -0.000043075852519023 -0.000445446759031387
-0.001002267414752063 0.000319699026312082 -0.000280411580182073
-0.001029240406396963 0.000454059111950813 -0.000189366360141652
-0.000925246736263577 0.000282538889562475 -0.000264573068686629
-0.001338026637418728 -0.000240956495264131 -0.000305343644750101
-0.001223707766063273 -0.000052018803243254 -0.000302617588345527
-0.000930628649994986 0.000173807619780028 -0.000409228158314867
-0.001465166045337977 -0.000429591476800540 -0.000322119610186704
-0.000670097399884273 0.000286643275639008 -0.000731367827128362
-0.000854844517918052 0.000225654765354616 -0.000615419730352423
-0.000913078520995204 0.000267916125248551 -0.000558075386337060
0.000188750979992836 -0.000127878805469565 -0.000486079085420947
-0.000428686768981624 0.000051648623028171 -0.000577287383831720
-0.000700962413397207 -0.000010089455903145 -0.000403476245168242
-0.000673413501082973 -0.000018701429821618 -0.000281102611372625
-0.000999294804370097 0.000258169697106227 -0.000276421999209398
-0.001083513621559587 0.000250183395880360 -0.000286392633916143
-0.001106180950066295 0.000317584314708872 -0.000273805806652024
-0.001185216887605363 0.000020136914684270 -0.000188966826720010
-0.001202639652695934 -0.000047314648993338 -0.000145366047746209
0.000104270321403617 -0.000170718229782622 -0.000323384781566436
-0.001053441214576101 -0.000023761592382743 -0.000263114106249942
-0.000551698843124687 0.000231889485461861 -0.000703273745570852
-0.000770906717932077 -0.001390129764502876 0.001686839485105533
-0.001814979238332331 0.000160918725345901 -0.000495621792597379
-0.001088888234336586 -0.000120646060567162 -0.000981739207454568
-0.001383930390225541 -0.000011649697204773 -0.000649683346899308
-0.001999485588730017 0.000136270322198958 -0.000346918935973993
-0.001944715332010519 0.000017184490382003 -0.000304642092081287
-0.001970683127838474 0.000031587101372143 -0.000326513363972955
-0.001821553730920639 0.000218075563129946 -0.000347376468340945
-0.001778331042646845 0.000286884673741280 -0.000693152144709168
-0.001256045620755040 0.000153635832388009 0.000110020976883061
-0.001275936472941320 0.000144443144055275 0.000152758774509484
-0.001239006535355152 0.000163120323207026 0.000067277098555678
-0.000308850092722190 0.000072540425833589 -0.002313683354773057
-0.001229618779326205 0.000231099355787329 0.000119046319397032
-0.001238260888805728 0.000238506121151523 0.000134005712834719
-0.001237006763985882 0.000227804007159239 0.000130661041978047
-0.001221406438426634 0.000233637551676455 0.000107380454798256
-0.001216320893346606 0.000232516937563401 0.000098576393530693
-0.001224720119339883 0.000177983942957787 0.000044104043571935
-0.001288286226606454 0.000145449592847092 0.000183455551459951
-0.001305885632364422 0.000139052457356648 0.000215456499385753
-0.001218682061169516 0.000189737212026362 0.000049323628498926
-0.000485578139227136 0.000533499303219468 0.000878110632832208
-0.000450133825664754 0.000424812731963250 0.000857285962496639
-0.000506471698447002 0.000591895815154702 0.000743460156038430
-0.000533657414764808 0.000659846732341588 0.000694251396030574
-0.000672026862396435 0.000696973525241359 0.000683325251433530
-0.000766420326988309 0.001082171424923475 0.000063126417023146
-0.000681568412814271 0.001080483132030294 0.000052245790524321
-0.000479030229975176 0.000934211473315937 0.000171226292212736
-0.000560380735349057 0.000943250725238377 0.000226203207539468
-0.000281792085261486 0.000731045514295445 0.000157586620376263
-0.000389675223445288 0.000750277242057571 0.000236752635169968
-0.000375036647785493 0.000895618313248244 0.000119595329259687
-0.000206879264119462 0.000821967092733423 0.000051714109706277
-0.000147584474634731 0.000698881282200008 0.000016999561447708
-0.000091457039738252 0.000739720531194239 -0.000052817337371773
-0.000014202142248090 0.000607413519190807 -0.000142102897257876
-0.000078058336255956 0.000667403505860690 -0.000202223942439653
-0.000092542439165902 0.000613277052988044 -0.000371970925930971
-0.000219292373907196 0.000626070896161489 -0.000307411534320261
0.000029276906808259 0.000631271169286951 -0.000844982433437936
-0.000019222945883445 0.000592554694538700 -0.000619988391579016
-0.000035778419642788 0.000779695025010369 -0.001343294470493717
0.000033917816253449 0.000669214351407912 -0.001105268793829673
-0.000258426274850583 0.000876952452617608 -0.001558004968278148
-0.000144517300740919 0.000844863153720132 -0.001484565031830663
-0.001736482805927349 0.000017826798253197 0.000577102257495366
-0.001466987608521529 -0.000131929903807312 0.000449634728494007
-0.001566646561699130 -0.000166174619233870 0.000362346904022166
-0.001547323549139518 -0.000138507192089011 0.000392954950113574
-0.001761634505423640 -0.000395664411563122 0.000271397326939939
-0.001719607933351683 -0.000431638459377026 0.000267266114805620
-0.001631419851128672 -0.000561682205155806 0.000474849686677723
-0.001658466240732221 -0.000581639838255557 0.000473576620117533
-0.001428840895024139 -0.000212015379952122 0.000436124066015579
-0.001341858446027874 -0.000175695879772439 0.000466053863661346
-0.001535811624042050 -0.000242583237481014 0.000372517147922038
-0.001314465873798746 -0.000681034484673195 0.000710062778627205
-0.001442932957156791 -0.000403173669081842 0.000493684213609956
-0.001749736927614708 -0.000651470911354097 0.000096205967020515
-0.001843266963444830 -0.000602934683859661 0.000092973054217474
-0.001880008595945413 -0.000647667145251719 0.000057899861893444
-0.001799987948035526 -0.000527206701041326 0.000046171626364871
-0.001979551688715405 -0.000105922744657639 -0.000089723980441341
-0.001921740301228264 -0.000094827405468203 -0.000079677530154282
-0.002026618523293579 -0.000046005203268982 -0.000294489469734832
-0.002092010400590850 -0.000047120709253891 -0.000305597502432689
-0.002096164817024042 0.000104815362183540 -0.000106329117348921
-0.002076937748033088 -0.000177708494600542 -0.000211256085836785
-0.002092523855254195 -0.000004008084196290 -0.000265081587184950
-0.002109817000908986 0.000275292641857860 -0.000124728161480486
-0.002142637155604042 -0.000117715153431217 -0.000319511950133500
-0.001147239063531941 -0.000314289565494554 0.001147990967750163
-0.001387502283403323 -0.000224275246720450 0.000651050991536102
-0.001573668793729969 -0.000118747666197376 0.000244181824623288
-0.001896764882378560 -0.000115677339160154 -0.000454631431603059
-0.001855649570516336 -0.000083437639900292 -0.000319951379833342
-0.001889956390960974 -0.000085129552190481 -0.000262859619453027
-0.001903054160608715 -0.000140203886768942 -0.000589204432169059
-0.001822113163286975 -0.000146455421463446 -0.000595077786476430
-0.002024491908825414 0.000497715600704122 0.000101303621812429
-0.002155473991874921 0.000476686509162123 0.000296839136185339
-0.002298359878095855 0.000633403372541608 0.000554352771909478
-0.001737763275978900 -0.000309292596277756 -0.000636516347912661
-0.001685279266852253 -0.000194496525618240 -0.000604583183389705
-0.001671061613489217 -0.000164998271730836 -0.000669684102933740
-0.001716530001173215 -0.000296165072263447 -0.000667132881727198
-0.001646270247727384 -0.000659209223515350 0.000108439837431824
-0.002101851946202809 -0.000101600816610664 -0.000383626625466399
-0.002123623204951909 -0.000180171113919858 -0.000345499194459919
-0.002163791396469677 -0.000017469859529692 -0.000568876090860797
-0.002126360146736801 -0.000030492211641541 -0.000576970711961900
-0.002127448941562282 0.000051760119977568 -0.000728488402803607
-0.002165864318799597 0.000068205719384662 -0.000686886143222304
-0.002132750846841180 0.000035733611483596 -0.000703174937737827
-0.002081664187696279 0.000040144267775872 -0.000795843887795144
-0.001805347384953060 -0.000272391027449517 -0.000627749825358890
-0.001698141508768472 -0.000195966574437695 -0.000546734307576943
-0.002067383425262359 0.000425660684407777 0.000031714755913153
-0.001935530371106947 -0.000133662380210810 0.000073134858850272
-0.002021083702738252 0.000047423820131970 0.000294297325463279
-0.001907600483774440 -0.000153499150403524 0.000218340137448929
-0.001830550172920499 -0.000321041039169552 0.000065848193737505
-0.001763882110116636 -0.000247778220891686 -0.000629980272201690
-0.001839216957390646 -0.000117398766045404 -0.000421039119060547
-0.001695144567141877 -0.000367652345955662 -0.000755928055187894
-0.001595935165610845 -0.000011801146809143 -0.000741238528866438
-0.001731868601087010 -0.000475802775084124 -0.000792900645715976
-0.001816463235930620 0.000164017447401495 -0.000300736120769562
-0.001893617548429026 0.000356496430789326 -0.000153834685388001
-0.002189391077581026 0.000270221111702462 0.000628203545068286
-0.002068604914399268 0.000100252422404275 0.000558263150982693
-0.002110681063657070 0.000312805039773452 -0.000131198212244478
-0.002100918012656418 0.000106468769517572 -0.000288377623584002
-0.001837379240285676 -0.000450070397057725 -0.000739690888710297
-0.001843797906924877 -0.000483235783918129 -0.000756572634838268
-0.001873490723315184 -0.000542337346744749 -0.000824607998222640
-0.001693480584554490 0.000010205576327172 -0.000578085658620630
-0.001636388706074644 -0.000129183093322347 -0.000679519494789518
-0.001900422283538138 -0.000345866593894837 -0.000008877938373928
-0.002085687407046418 -0.000026756555921544 -0.000441770916597225
-0.002084011681550629 -0.000005236663028477 -0.000620680776553976
-0.002188765428128596 0.000039388970116531 -0.000598012770786472
-0.002198435965919782 -0.000035239680699493 -0.000517211110130352
-0.002179924755329307 -0.000076151287552162 -0.000424527618337750
-0.002161616337246106 -0.000003005585338987 -0.000466726517801739
-0.002043014789401509 -0.000004094989091695 -0.000754406542023597
-0.001978458742424654 -0.000094964016809487 -0.000790960643355866
-0.002104563484814105 -0.000014290145178835 -0.000480210448618457
-0.002135443306207283 0.000015552712231971 -0.000612965340761963
-0.001838236624172962 -0.000387161115646844 -0.000720271633896131
-0.001957442434588883 -0.000062596511716988 0.000465797093874528
-0.001997087688686247 0.000082835384682552 0.000695352427090198
-0.001895988175650358 0.000005832275791493 0.000694819355143899
-0.002241703101581090 0.000326636197426927 0.000727283099030393
-0.002139543982815154 0.000214267685261374 0.000756980225244916
-0.002246667927524433 0.000406786441716832 0.000522977688966588
-0.001819821093126640 0.000050882836026468 0.000669369140320091
-0.000956554066894474 0.000206910337478748 -0.000330273154711537
-0.001891674722488703 -0.000577430455862430 -0.000833812970718661
-0.001878673885757630 -0.000575804979684692 -0.000898487275317231
-0.001871447827693279 -0.000560402199214076 -0.000889389933917021
-0.001627378784186081 -0.000072063295796207 -0.000809976376373528
-0.001120111628946792 0.000542387420367919 -0.000120000130038633
-0.001147947330204001 0.000573424731041689 -0.000148667732207220
-0.001178463094151963 0.000537722234757076 -0.000234289913865494
-0.001176455983388210 0.000523538268108587 -0.000250349896689714
-0.000811022112060726 0.000146059980990782 -0.000353916906509711
-0.000759624881068214 0.000111679220045344 -0.000352313782200093
-0.000386736267248488 -0.000025341548334314 -0.000403594892081538
-0.000263371605139919 0.000066299822983206 -0.000564380872315458
-0.000390967773324810 0.000139387671796917 -0.000585665020545456
-0.000487119614915491 0.000102748000827004 -0.000663919085887989
-0.000527027255178099 0.000065937110539766 -0.000616877921899639
-0.000592359728409774 -0.000043970597581506 -0.000304914242554307
-0.000508100331627032 0.000021920227933301 -0.000401379199733265
0.000355983818369025 -0.000259406273456435 -0.000613169795555685
0.000371745924712831 -0.000230464182663727 -0.000462652685306940
0.000479418992223944 -0.000328415785897860 -0.000473284964611568
0.000473368332045608 -0.000313368039768246 -0.000621107960236955
0.000607130137231047 -0.000394093362858725 -0.000618620862963716
0.000570950117655412 -0.000326563444626754 -0.000665439678019726
0.000440106003581141 -0.000255637989751643 -0.000701400581273890
0.000515206779731800 -0.000261690147787464 -0.000595550494010298
0.000376860058841007 -0.000195418925602595 -0.000632491276629269
0.000450480832567408 -0.000233271734911126 -0.000496590888311399
0.000492942122425966 -0.000220343050155898 -0.000374457468806828
0.000385894267579558 -0.000212585358485646 -0.000410655623622935
0.000356720729849092 -0.000189442509759931 -0.000526019122459123
0.000296707100487453 -0.000193339917916584 -0.000349739950051127
0.000412042494806421 -0.000204354836364377 -0.000321106956151660
0.000417490958061923 -0.000154067767163914 -0.000267964659902087
0.000306113773939626 -0.000168808271966527 -0.000295660879344914
0.000562976252631414 -0.000092175774081789 -0.000019653158856532
0.000590966227272144 -0.000128724218539963 0.000058332046100106
0.000463410039163151 -0.000145289850428912 -0.000068766534248142
0.000435807800409449 -0.000133831768289204 -0.000152703705788407
0.000385972406963758 -0.000163604523891895 -0.000158257792718387
0.000378147383801405 -0.000166229153681921 -0.000137984079636714
0.000489628114551361 -0.000147659994189679 -0.000044317161909599
0.000492995817038950 -0.000180003890420049 -0.000089289142195638
0.000610026527009308 -0.000241896116140809 -0.000024647718405238
0.000595119713371391 -0.000274632237940790 -0.000111182235458144
0.000482415171660781 -0.000260192408228494 -0.000128943953051311
0.000151439238916910 -0.000188818034894896 -0.000604599564066590
0.000253697088470867 -0.000225587357564064 -0.000605806634997576
0.000232426731616935 -0.000226825287033163 -0.000715535560509784
0.000276019593361088 -0.000170901780763968 -0.000549677726292330
0.000179279669837496 -0.000146051080575730 -0.000593962210968974
0.000207300973608826 -0.000170324762043161 -0.000695413648707178
0.000299309852565116 -0.000183419478896457 -0.000666360911934408
0.000085252943209005 -0.000209536617078746 -0.000315825569861764
0.000188650009547717 -0.000194061263207979 -0.000354266826433729
0.000200196734894118 -0.000182084426800425 -0.000316737941008950
0.000278631951330932 -0.000186630512418827 -0.000441903615533647
0.000178342271750933 -0.000154773159602299 -0.000472161134801126
0.000321039100199352 -0.000120567865893458 -0.000266666469176566
0.000428493074746849 -0.000091309944152025 -0.000197386633292630
0.000399447629588806 -0.000227565298092333 -0.000353539104751683
0.000409223870197154 -0.000235834411839987 -0.000257628908696419
0.000479534356541352 -0.000282770367908742 -0.000229174797628569
0.000477715704219473 -0.000299404506409016 -0.000349489956701926
0.000215640899123546 -0.000143618249226536 -0.000293998595768088
0.000316681653645576 -0.000182569239200706 -0.000303725567517973
0.000309181020427874 -0.000166688266372240 -0.000380455982515877
0.000412617201072058 -0.000211727297426274 -0.000174446050313506
0.000319264358757938 -0.000163324726026976 -0.000263028506492807
0.000579278251613707 -0.000374616528264896 -0.000337498331356245
0.000589084668156023 -0.000421238715047588 -0.000477799394780468
0.000290989057202177 -0.000181460849996978 -0.000469643117681256
0.000324228222573475 -0.000193238377030445 -0.000279193091545062
0.000345147334427654 -0.000176808368934143 -0.000222128882517479
0.000237850841808394 -0.000223726361165508 -0.000320993771882348
0.000214639990888187 -0.000240351146174782 -0.000363366290681758
0.000203324320831945 -0.000163839740187431 -0.000320981915557774
0.000286008145728961 -0.000191788085833648 -0.000219269853308903
0.000305589799122492 -0.000169789011130581 -0.000238277126125224
0.000627799538310522 -0.000180062906729374 0.000056567118060597
0.000219082931165967 -0.000133154752197724 -0.000352220266578014
0.001633295152695520 -0.000070267624797773 -0.000449413565340129
0.001503931015101318 -0.000036035288145086 -0.000467352642636844
0.001570264473080179 -0.000003295171020146 -0.000602524838003249
0.001695404812039905 -0.000048063114892317 -0.000577074223239693
0.001287216526107941 0.000090255795387781 -0.000698996094552957
0.001163799781961265 0.000032453910059768 -0.000799951617467305
0.001291821338581462 0.000031269262474624 -0.000923833688172111
0.001396335257884254 0.000083316307339506 -0.000832693936332931
0.001740610251940734 -0.000063467108292289 -0.000695240631236013
0.001621923239205351 -0.000005393315914309 -0.000719551045587666
0.001722596926333338 -0.000116692795080341 -0.000780384782499685
0.001839333690559420 -0.000206944456796560 -0.000736556077029277
0.001845711250170939 -0.000122378496883955 -0.000681740432260140
0.001950096502766606 -0.000254092410093046 -0.000711338960238099
0.001761918267616549 -0.000347567220313000 -0.000706225373057139
0.001928110236160903 -0.000367800255006945 -0.000657272991089112
0.001688730787690936 -0.000481136025844660 -0.000365350671358564
0.001653423996691455 -0.000472364691249234 -0.000219367035854955
0.001852861247743760 -0.000463269670553198 -0.000215782045864509
0.001883703218870294 -0.000460712870759136 -0.000368596319022843
0.001739370895193092 -0.000378812181764886 0.000043249509492524
0.001811028461554358 -0.000427055821581898 -0.000084374578529019
0.001609158513908739 -0.000440134239505509 -0.000100066493641769
0.001554272695227960 -0.000392577611380383 0.000014075911657876
0.001553853047924112 -0.000109449960991418 -0.000252441748077184
0.001413635049464427 -0.000094427387324911 -0.000247280622355476
0.001444671429470279 -0.000079184055050163 -0.000336032077580764
0.001577695240700779 -0.000101952744825060 -0.000332594076778218
0.001665101206239158 -0.000150270253893668 -0.000928705776417691
0.001619554664862300 -0.000253744858319445 -0.000825550226559357
0.001703016822368759 -0.000208544885695139 -0.000804011976753707
0.001692293910118419 -0.000108769049573666 -0.000906300704677100
0.001080906135762860 0.000064025675602220 -0.000084264134199807
0.000918032379501095 0.000007833278028190 -0.000113489571558167
0.000919677764372959 -0.000046630129345793 -0.000229115258492773
0.001069552343947550 0.000011667187483634 -0.000189182533866041
0.000965200083280799 -0.000028561651369791 -0.000573571829717592
0.000896703829896192 -0.000104898862752225 -0.000464749568990728
0.000822591672726787 -0.000245286688740702 -0.000583934264666585
0.000911481475354176 -0.000195798833426974 -0.000675410038771666
0.001051347319609021 0.000017244511425497 -0.000682801399145540
0.000998953801226993 -0.000147052072604985 -0.000765737148952800
0.001116618970341947 -0.000107307830543345 -0.000864306515858700
0.001256908379244107 -0.000080628361961121 -0.000976777844215359
0.000910564077840486 -0.000002723126497353 0.000020119991340358
0.001024967974199810 0.000050333525371399 0.000074462966531981
0.002626165227240003 -0.000147403942970166 -0.000623903306976894
0.002634552774757894 -0.000125890227026554 -0.000546448170443965
0.002557002854882045 -0.000131306274333350 -0.000557055762361654
0.002548564448533008 -0.000153426271075852 -0.000635318526633961
0.001009019213756057 -0.000123934726403118 0.000184588710546371
0.001024996924837840 -0.000228905940139208 0.000148230741954922
0.000932922998246963 -0.000203742630309923 0.000138286288504813
0.000923425202084161 -0.000108255799077360 0.000149910629742187
0.001128482080949135 -0.000144472437259307 0.000227602857837448
0.001150369192817608 -0.000259654354186403 0.000158493374881044
0.002658753667420057 -0.000313222077148244 -0.000641096121416924
0.002642438638146958 -0.000257426283043481 -0.000678186285403932
0.002563242876676913 -0.000273604417520178 -0.000678537205956025
0.002576881641347617 -0.000329285851016679 -0.000637084539215691
0.001815213977795485 -0.000077322270405056 -0.000573222475735757
0.001760126233919258 -0.000089570288363793 -0.000453269752492016
0.002064822709425457 -0.000100188410426854 -0.000524875551775533
0.001909389379466025 -0.000097610105548832 -0.000461303602279964
0.001932311668824830 -0.000099715881247143 -0.000590812132398876
0.002047050527504301 -0.000121185618718494 -0.000611458439014680
0.001817725283695705 -0.000105776428360560 -0.000191375506374313
0.001675742710572604 -0.000109036539037344 -0.000195486071072607
0.001726084412344744 -0.000114717191822575 -0.000296498272869661
0.001873104227342192 -0.000106114457460100 -0.000287604039460336
0.001638936052958788 -0.000045363567805638 -0.000031927706272253
0.001773331066302160 -0.000059096941096876 -0.000020665622628046
0.001755382391245184 -0.000023587385732180 0.000069224774979513
0.001637473626684210 -0.000008164318104420 0.000053938547781522
0.002048406864709882 -0.000101555651286667 -0.000081871994389378
0.002176685004737475 -0.000134425976751450 -0.000070632422614289
0.002155190021847745 -0.000136314532898585 0.000004491309140182
0.002032082660758362 -0.000093177669045179 -0.000005694895610178
0.000843801899745211 -0.000191466409683821 0.000125388351737318
0.000833218738409083 -0.000117152877544158 0.000130229916045155
0.001623754924541310 -0.000259954723865952 0.000269619782864755
0.001567573900538292 -0.000152782409959393 0.000341915594224125
0.001695820038008493 -0.000145300861411505 0.000396028043027639
0.001752758836671426 -0.000253248337893521 0.000316937689859848
0.001053223676618648 -0.000327307516838031 0.000060581130845017
0.000948037779526914 -0.000301460919226714 0.000060023317493361
0.002674072418901760 -0.000340420858337172 -0.000569045909707147
0.002592074803680606 -0.000358597778992921 -0.000564413333136587
0.001143289316889938 -0.000257758055132369 -0.000831626907042365
0.001288720919248201 -0.000209000508058701 -0.000953046122360213
0.001021104092315178 -0.000303932674324293 -0.000734482963765105
0.000928576503317048 -0.000347448102860225 -0.000669326674052653
0.000836030178884915 -0.000396172994744368 -0.000633868927794272
0.001982303576873339 -0.000099437491969502 -0.000389239632079147
0.001684203138159279 -0.000105689269166818 -0.000354674908397387
0.001533498937020095 -0.000097191720783208 -0.000191607528653981
0.001481811447618100 0.000070968215396460 0.000203786093551924
0.001375363395005520 0.000087651421648103 0.000195608858596903
0.001421796922109084 0.000069473397379120 0.000066520734655591
0.001515128371255107 0.000047481180411943 0.000106014283906823
0.001549480128154864 -0.000036574602750228 0.000358109301358752
0.001576826514543057 0.000033139330585271 0.000301408926702991
0.001693131926306729 0.000022125959922163 0.000327717589762953
0.001675439561966249 -0.000035368946687882 0.000397392775904131
0.001629933126309889 -0.000190242327278031 -0.000979968041381543
0.001530929456165218 -0.000267344546076668 -0.000875065691315146
0.001009052962670425 -0.000020226925245117 0.000166502592125821
0.000911304548457063 -0.000037878194915955 0.000116310233471960
0.000816444231896462 -0.000070466432614039 0.000077301263421912
0.001240032283406257 -0.000038110320124712 -0.000207007532447896
0.001064196805754272 -0.000023374284666419 -0.000252838856251182
0.001075718548702284 -0.000017367020308217 -0.000329401513720422
0.001256195228436857 -0.000049167882819345 -0.000264773030434348
0.001357187789180467 0.000033128686085311 -0.000492613041903011
0.001187469385873002 0.000067724852742573 -0.000554971428910830
0.001441725851486263 0.000062213700937558 -0.000634520631187091
0.000908599619973427 -0.000085616189638576 -0.000322953819216455
0.000790038981183420 -0.000120205524204641 -0.000246244580308822
0.000780273201117445 -0.000172635371805221 -0.000339928114043496
0.000796147547627299 -0.000067359303995856 -0.000139053477815393
0.000805609744183211 -0.000055196258465685 -0.000023586394445514
0.000650731314222158 -0.000184738764112618 -0.000241303581450904
0.000625620230962754 -0.000248984774917463 -0.000324480232253520
0.000649481320805102 -0.000119369995642136 -0.000160325382703323
0.000658799290053714 -0.000110972115796951 -0.000067671871463065
0.000711883611906625 -0.000275664643925836 0.000029877021371756
0.000718995043765816 -0.000205542855116432 0.000116794053936991
0.000841262586567329 -0.000288224551690663 0.000054500788706849
0.000694548368444314 -0.000342431606411374 -0.000532822859814980
0.000781636889259515 -0.000218655130757998 -0.000449900305173929
0.000605371050976305 -0.000269390619178044 -0.000458505251568769
0.000713963004454551 -0.000446290620097786 -0.000628814566136926
0.001472734790163986 0.000068145865644218 -0.000932153636349573
0.001548015480851676 0.000067422476351047 -0.001013666438857651
0.001621868809227187 0.000042351837836815 -0.000944203975361155
0.001564904302376309 0.000036038180199373 -0.000860928534030585
0.002060324602324707 -0.000277637305010063 -0.000688277551691882
0.002052823391941074 -0.000185387530852505 -0.000677569592699424
0.001946500316174676 -0.000161162416262301 -0.000680382240213463
0.001201592800358658 0.000100210527326325 -0.000008214269423714
0.001146451376790176 0.000090737868779352 0.000132934347700913
0.002101488525920730 -0.000105725373326478 -0.000446713800768469
0.002477378239338918 -0.000341099855772628 -0.000634218837850806
0.002465396490300533 -0.000281297163814710 -0.000678355989067233
0.002295576788530568 -0.000283974531350379 -0.000677430474214985
0.002313375223874840 -0.000355574172132856 -0.000632773288808034
0.002230614672346821 -0.000154697961168254 -0.000396246890311361
0.002195224308387550 -0.000122862914235321 -0.000468851970095605
0.002305816719410667 -0.000125271454657500 -0.000474795248218865
0.002339164539537152 -0.000174217264082027 -0.000412089096982310
0.002105379624931163 -0.000104440281587441 0.000089619776900433
0.002004165072710053 -0.000069022288156199 0.000084314937872110
0.002074473668089618 -0.000389988091018631 -0.000362729134745543
0.002056880583151074 -0.000424973460628685 -0.000521799191411810
0.001900503588895312 -0.000452289317309336 -0.000530317531398360
0.001790483897338162 -0.000087921258932851 -0.000101733427705237
0.001921568188341983 -0.000089600990333901 -0.000090996318317108
0.001905814471266119 -0.000071458884089757 -0.000012279199003639
0.002030461274459634 -0.000105724145839131 -0.000351631980311703
0.002117796742154950 -0.000116068338718823 -0.000378705052399578
0.002087425012140411 -0.000117297293412131 -0.000297901221381990
0.001981609149029027 -0.000104792860777895 -0.000284244500683065
0.001415238460150248 -0.000163390067548010 0.000303013630264515
0.001398082742958203 -0.000010317119940845 0.000320063036292844
0.002629426820522118 -0.000197681170612981 -0.000670709692430243
0.002552180257501137 -0.000208800218588362 -0.000678658142740626
0.000710475344085856 -0.000153694769245100 0.000113017503923093
0.000685926830296630 -0.000098491279982480 0.000044897078295736
0.001650180099731935 -0.000084800626656582 -0.000115213318648333
0.001717313794154611 -0.000452554486816667 -0.000530480449064419
0.001513882456181095 -0.000065423345411990 -0.000126450165666577
0.001978187620928492 -0.000276763165867580 0.000181783007302136
0.001977143961502702 -0.000189423884889215 0.000241638163298360
0.002075090032971046 -0.000196837349081463 0.000213659528356322
0.002083630120466714 -0.000284408106893152 0.000191971754117956
0.002492240362483257 -0.000196647149617342 -0.000422019940030115
0.002472152843241582 -0.000142636391112822 -0.000481440043670518
0.002573086751546559 -0.000151514467423414 -0.000477228269449947
0.002588918999030839 -0.000205918255322594 -0.000424739257080761
0.002162945411701837 -0.000118848142909068 -0.000541989509455337
0.002146903981557745 -0.000141384676169119 -0.000619042212726851
0.002271050759754167 -0.000147362901063692 -0.000624714746624679
0.002281987407862974 -0.000117659299337737 -0.000551175966195951
0.002154675861400816 -0.000203640225465013 -0.000669523773246093
0.002279962185267535 -0.000209670475333232 -0.000671869377752367
0.002508115104427791 -0.000281115944162198 -0.000408483473310469
0.002504766320427205 -0.000353542370201071 -0.000464971285646762
0.002343172803782103 -0.000356905699632456 -0.000449499707477455
0.002360347840043405 -0.000269036391477289 -0.000399257905911429
0.001372713897788751 -0.000402229933798493 -0.000010382382842629
0.001335080366884168 -0.000343270701328428 0.000093798774676977
0.001510433220584815 -0.000333712834009352 0.000128731508363713
0.001682333826888303 -0.000322614426845510 0.000167632815405740
0.001842447612011020 -0.000280188971332620 0.000197355853636258
0.001908504166231396 -0.000368148960442097 0.000070391418888657
0.001466568525476043 -0.000272699147189546 0.000221524862360693
0.002213953202103759 -0.000276133963676846 -0.000328116413413528
0.002207956832458213 -0.000341007896415891 -0.000413116639352131
0.002196944142587105 -0.000351160547972034 -0.000308862408150984
0.001495532110051876 -0.000009373702825943 -0.000031059222882564
0.002454393800227662 -0.000212651461254457 -0.000679621318563129
0.000988615069662288 -0.000504433068028384 -0.000506521490963469
0.000988879012555514 -0.000504524224905935 -0.000353314744748118
0.001139440038433648 -0.000521093629884888 -0.000340372285387593
0.001116218734685552 -0.000489182452925414 -0.000521827719640921
0.002454259193598185 -0.000128350369980827 -0.000559434085060365
0.002450191588879531 -0.000149849254411341 -0.000635619549978634
0.001994889214923071 -0.000060579288623052 0.000174584412899028
0.002084021245515605 -0.000100137635537491 0.000163706050129712
0.002084505646338690 -0.000123335515518467 0.000219434786695426
0.002012433353973529 -0.000090974914802858 0.000249333100995521
0.001301594171237813 -0.000278929925333198 0.000184163720907964
0.001796769225466716 -0.000132188987076785 0.000432930069782673
0.001839240593789779 -0.000244006745275728 0.000362567702374471
0.001176358408937977 -0.000345652436324601 0.000072784803993734
0.001207063207915675 -0.000414671627852734 -0.000033195420158303
0.001075697417480185 -0.000412812971070392 -0.000052144841517151
0.002019050954321225 -0.000378865513078090 -0.000074190447495302
0.001416180586134080 -0.000449057975380097 -0.000114287422429744
0.001242649884313186 -0.000458351348769594 -0.000137422204581394
0.001095187124148439 -0.000473385861024965 -0.000171491728961359
0.000966452231026446 -0.000452703825196969 -0.000187738715566970
0.000956106165824375 -0.000388869587850231 -0.000060083956974381
0.002492544913190673 -0.000372962877871359 -0.000556450096830144
0.002602408377279812 -0.000343342788589264 -0.000476241160954024
0.000829672386589432 -0.000359383862685088 -0.000067990709879593
0.000690695039406755 -0.000349894468340238 -0.000063389426029552
0.000670955699398732 -0.000366365894939141 -0.000198023360876519
0.000831233449636444 -0.000416773984286718 -0.000199842185597332
0.001276030242866802 -0.000485680011554397 -0.000253238942124538
0.001303731874561030 -0.000512580313557227 -0.000375880921738455
0.001454747834325045 -0.000480433769536332 -0.000226458544844284
0.001495338587250294 -0.000490756250663676 -0.000364464627996270
0.002034666400749139 -0.000440630231009110 -0.000214919832827033
0.002798281719979596 -0.000267978284830412 -0.000439743921381391
0.002686691759853613 -0.000274967937218078 -0.000431242383687160
0.002674573567922056 -0.000206668979032388 -0.000421947313600294
0.002789194876839606 -0.000209441677415534 -0.000424533712257946
0.002601317830900171 -0.000280398421791748 -0.000421832655575058
0.002685040701189653 -0.000329930843665158 -0.000484979530095435
0.001523507728580720 -0.000459727186606586 -0.000533140898502923
0.002194455952770356 -0.000151400838904468 -0.000307886734211894
0.001304689583618626 -0.000454249002546186 -0.000571650593409130
0.001583323082567338 -0.000388397950875053 -0.000711744804757627
0.001430667577796851 -0.000371147346662189 -0.000752592410675096
0.001066177101710035 -0.000423655508737391 -0.000664255038263733
0.001194352388826218 -0.000372115997118180 -0.000740726239616160
0.000855039200045760 -0.000478595169359750 -0.000602247538721254
0.000960154882572111 -0.000456446845080900 -0.000620511832494125
0.000711963252799422 -0.000492351776653879 -0.000612679009031580
0.001339482294077456 -0.000309804296499321 -0.000864056676768969
