VERSION .7
FIELDS x y z
SIZE 4 4 4
TYPE F F F
COUNT 1 1 1
WIDTH 740
HEIGHT 1
VIEWPOINT 0 0 0 1 0 0 0
POINTS 740
DATA ascii
-0.001385755129463559 -0.000079864299350850 0.000893651398968911
-0.001471541885505755 -0.000110010371676183 0.000760113156295371
-0.000287357203194874 -0.002471261162018471 0.001125992620559357
-0.000712507808419138 -0.002566687359646485 0.000586601240982393
-0.001501032893843035 0.000815355996126307 0.000159094178590326
-0.001569088870003199 0.000763922554105483 -0.000021440183985029
-0.001562515613292604 0.000883878739334575 0.000096617454451374
-0.001437264728860603 0.000730144209118894 0.000122827775908799
-0.001448113782398652 0.000592819651772955 0.000284043075724817
-0.001423693987267294 0.000581007816263055 0.000136558471136485
-0.000155739475909994 -0.000989747379301544 -0.000809202754539892
-0.000361274672608537 -0.001192823635297655 -0.000274706139104450
-0.000227550176350435 -0.000898804164562410 -0.000406422684770955
-0.000142704727368654 -0.000863705044032545 -0.001324891982179515
-0.000345642719680136 -0.001569813735434522 0.000041375825949667
-0.000087088114683118 -0.001749840012813437 0.000175125372944289
-0.000135483660801960 -0.001832596177569538 0.000143244251786818
-0.000441222291378073 -0.001649906753724998 0.000063740134059233
0.000140879883696680 -0.000655163008838079 0.000866176270014445
-0.000112484319857168 -0.000435112670412173 0.001135868839617584
-0.000013824295933024 -0.000517789290406262 0.001075126467573991
-0.000232801163973936 -0.000204082564465767 0.001235261997378137
-0.000337793186026164 -0.000099229915177615 0.001212832368472143
-0.001115452425578872 0.000750081882809895 0.000481479036731089
-0.001038802272916077 0.000747801389477809 0.000710359740321405
-0.001438892498422067 0.001001851736378323 0.000785205842028449
-0.001354042226774048 0.000980656573703008 0.000575155789874314
0.000682353855175292 -0.000052970491540041 0.000570669978955070
0.000735681256931996 -0.000061146876337630 0.000708055393494456
-0.000451338794341095 -0.001662166160393317 0.000339540550520057
-0.000501131176620740 -0.000819796262019053 0.000589138082601319
-0.000432620862971552 -0.000827311888381459 0.000811923388372107
-0.000488881922363226 -0.001852431116818696 0.000772316712100168
-0.000993417189701791 -0.000411401273371919 0.000189972205948149
-0.001033342821357746 -0.000455044221246787 0.000061260150142403
-0.001184496206927340 -0.000011588040163204 0.000050647024888733
-0.001806976770731926 0.000763437280935256 -0.000048974598933712
-0.001611243715597911 0.000315276401610435 -0.000049504323989609
-0.001623984312675195 0.001037546266135580 -0.000132810641290777
-0.001425428292857880 0.000736435570944249 0.000003364020880253
-0.001226553091010679 -0.000600105103993135 0.000552053335094255
-0.001140978589861395 -0.000483408315255421 0.000410216251616932
-0.001392543477211104 -0.000131753304386313 0.000429066657166371
-0.001409858745882139 -0.000276270421719241 0.000566141883537136
-0.000818814654384509 -0.000048299223756185 -0.000832675395252009
-0.000738301881246948 0.000033572747466563 -0.000191955963271598
-0.000907270681774295 0.000398075312807561 0.000285770679119685
-0.000897463632969241 0.000082196998542564 0.000109087036932790
-0.000215723910780946 0.000143793397610404 0.001633412305319020
-0.000262270870638223 0.000067376483208937 0.001888041159742582
-0.000258167342446933 0.000493041690990929 0.001589495797158352
-0.000240221575781179 0.000288062893291011 0.001563674144658463
0.000043827055233443 0.000595171960327705 0.002399491549958976
-0.000261735298681461 -0.000336158706261378 0.001200337858551973
-0.000254352259305633 -0.000208738336687637 0.001428760654269516
-0.000303309946504085 -0.000001896303188449 0.001313675769348085
-0.000267108229948818 -0.000069397378130421 0.001145395020847786
-0.000154567316042419 -0.000133900830689243 0.001138827746766126
-0.000186504037569623 -0.000435350845462730 0.001286125963629293
-0.000049426347477459 -0.000347007705102751 0.001072663879761853
-0.000139566795564813 -0.000081133698848432 0.000773501980819319
0.000021962146193268 -0.000170424596857757 0.000883765724734566
-0.000139946106395401 -0.000186067529080568 0.000322775598702201
0.000021326996745480 -0.000237507825249913 0.000885772395901637
-0.001478844990436441 -0.000534977457531541 0.000959229939640352
-0.000303303470930228 -0.001094159296120719 0.000646439262402763
-0.000290419822517499 -0.000731549182281347 0.000634414622641882
-0.000302160999543689 -0.000693566422059270 0.000391292666550298
-0.000303376755635418 -0.000901185552132077 0.000402111319599115
-0.001542716190755835 -0.000787295782334748 0.001029353863628334
-0.000330331011927479 0.000868502453498164 0.001285460621110675
0.000171076490341861 0.000638950694096372 0.001577182656190868
-0.001254289574533928 0.000719584660296512 0.000107321164465819
-0.001471019486357390 0.000804151309865982 -0.000431625257274186
0.000728805808620811 -0.000319006335244431 0.003035067280598185
0.000607892227381617 -0.000123902533613055 0.003074734416399686
-0.000557080722686719 -0.000844524897341535 0.000059793454864390
-0.001621969158465207 0.000969891182861350 -0.000188569112294375
-0.001366972842102596 0.000648395664409296 0.000003085275159689
-0.001320306105513083 0.000626129461999758 -0.000030978299214906
-0.001526709544568455 0.000796834519331509 -0.000241235186379280
-0.000735336053221973 -0.000433927374792433 0.000157535094503726
-0.000937116801874570 -0.000265693858867530 0.000133076246205481
-0.001275670516135357 -0.000268530585864696 0.000080557687406719
-0.001052956415115432 -0.000295062450556589 0.000365112015934130
-0.001000765508920846 -0.000161027890417670 -0.000074091325470373
-0.001114933499114921 -0.000021982050892615 -0.000291240263201290
-0.001210603328271097 0.000106864147129994 -0.000244554854768033
-0.001212356793492871 0.000004443870959904 -0.000001087908618515
-0.001847840995139669 0.001048498976963745 -0.000215531201432756
-0.001953082987064395 0.000795923613649879 -0.000363724706669443
-0.001985163156872671 0.000889195784423582 -0.000209998583620632
-0.001815518570063832 0.001036219438511442 -0.000329710516121040
-0.001793075158042284 0.000921774890524145 -0.000447305061432659
-0.000569257762842486 -0.000592507035194417 0.000255152001644389
-0.001007460328691830 -0.000839093826094118 0.000495694249209869
-0.000930968426277335 -0.000652487192660273 0.000310105156607393
-0.000625541311327364 -0.000361144717656063 0.000106285817036904
-0.000317922483419389 -0.000417317534466965 0.000377064084034226
-0.000295348856779325 -0.000435799219959071 0.000540386422371549
-0.000591802361412227 -0.000322357690430034 0.000210370346252668
-0.000972178368348699 0.000078270377178609 -0.000073018589014924
-0.000915870836861124 -0.000125411692247492 0.000082983400055493
-0.001241913869983068 0.000077758830251348 -0.000129218818349393
-0.001135885053520271 0.000238179178679937 -0.000220613401061987
-0.001810007289285078 0.000505880932431080 -0.000154852456912546
-0.001802771990493085 0.000549815876264378 -0.000354630820394279
-0.001798879546769249 0.001018603037037766 -0.000478798660537478
-0.001988628882964417 0.000959964942035210 -0.000486736104182458
-0.001766762994205978 0.001019443045240960 -0.000508476058915007
-0.001497752124959339 0.001030958721105695 -0.000492547711192381
-0.001450865236250393 0.000864738400478672 -0.000486444801860004
-0.001641296760452773 0.000637181123986494 -0.000501404596275277
-0.001181753187577089 0.000522692058083090 -0.000386054212716684
-0.001069711827846416 0.000327258236901726 -0.000399264576298028
-0.001178723276767121 0.000391887029173170 -0.000237093614254693
-0.001036284290017896 0.000198526995805405 -0.000191466535674752
-0.000974217342904575 0.000240037326552004 -0.000306783891136816
-0.000872191171987699 0.000022095462099522 -0.000195260116987121
-0.000882676260474384 -0.000133670104980208 -0.000254301089813647
-0.000908142797266870 0.000127317703260220 -0.000277200932670561
-0.000986091131709301 -0.000041778271586458 -0.000377684304728136
-0.000802405438093685 -0.000125469923024417 -0.000020650668514279
-0.000920966554438550 -0.000112537888414015 -0.000387857924791912
-0.000776142411177555 -0.000260082932187843 -0.000169445892675427
-0.000731767009395031 -0.000214985231297344 -0.000050992135626094
-0.000947803196883473 -0.000084702538443123 -0.000362017515647796
-0.002019259847810745 0.000468077882467521 -0.001151358941145873
-0.001736929696258274 0.000468777823900938 -0.001112774861829168
-0.001590512606901312 0.000450972499628268 -0.000903529205430994
-0.001725156867409024 0.000457224319466526 -0.000955834102245047
-0.001683449319614539 0.000415738003041247 -0.001108717848449475
-0.001437410470678436 0.000486353451562231 -0.000630256853982734
-0.001370450378483333 0.000715114139918368 -0.000661786098629634
-0.001543902577597954 0.000574909268222623 -0.001262994910606970
-0.001562036593768305 0.000828876381482105 -0.000824066144523650
-0.001733400800230386 0.000683690031050147 -0.001217850002945333
-0.001509498111398628 0.000669487169485455 -0.001401398844036743
-0.001314974137623719 0.000796674042756785 -0.000923318314014935
-0.001691580501230582 0.000797667999534012 -0.000804199743498996
-0.001805237264830108 0.000751067619519400 -0.001176693906965893
-0.001420267500035478 0.000836372430674165 -0.000924392542827551
-0.001500695840649203 0.000837851970091608 -0.001271914910441146
-0.001561341659639885 0.000940361432964013 -0.001134244824290789
-0.001815396022796621 0.000919800996004753 -0.001547273854477213
-0.001506768489719887 0.000736287132734572 -0.000587680249021859
-0.001598512543964275 0.000681617164365657 -0.000780530529667085
-0.001880585368135434 0.000731682756838292 -0.000830553531485360
-0.001724156048410625 0.000847929197285102 -0.000664789025585395
-0.001630482290447474 0.000832678528268223 -0.000302522065903871
-0.001522420318603815 0.000786404859460629 -0.000722567962321246
-0.001544028466699297 0.000828983058881571 -0.000688487394975158
-0.001373309515127572 0.000690502032224729 -0.000481114194453237
-0.001476780797323445 0.000969740835746913 -0.000413151520848529
-0.001297772202475804 0.000886885976098854 -0.000594133925634896
-0.001293879930355844 0.000673683944298747 -0.000454576827973771
-0.001340377354730355 0.000554919918007432 -0.000355293517273492
-0.001146435505212353 0.000073947328087724 -0.000558011529087288
-0.001138880960870255 0.000134221208830262 -0.000491579296046099
-0.001159321885279585 0.000332299363104721 -0.000406054453127364
-0.001178241885681998 0.000223189592773371 -0.000478279089357200
-0.001252161664387904 0.000825044279132017 -0.000358834133125176
-0.001573614220660746 0.000939470085304013 -0.000733818651201197
-0.001200647878877130 0.000914235999208379 -0.000337859865075868
-0.001146568539392247 0.000867871466918557 -0.000263820980534646
-0.001318000388634493 0.000895078478425574 -0.000646974822072529
-0.001509057096320093 0.000793128819723656 -0.000582855603513142
-0.001447914244596481 0.000692374590532134 -0.000617589172795338
-0.001159887976806039 0.000501424008737448 -0.000385623225122163
-0.001243680184106921 0.000534252506609425 -0.000653773768794168
-0.001236634413586241 0.000401979473450735 -0.000379142891756983
-0.001409835302692038 0.000316583676439238 -0.000816154213436797
-0.001330166628014288 0.000336688362485174 -0.000586272863970926
-0.001304104904956074 0.000552694907250098 -0.000481978837408515
-0.001287390971147795 0.000490806564045762 -0.000606667703534466
-0.001542251257308809 0.000974823435349085 -0.001099906498633424
-0.001722080346973476 0.000930633178288471 -0.001355995866240294
-0.001838248279461476 0.000900231107948584 -0.001317710032627001
-0.001445620764208100 0.000803279131470417 -0.000744721541043317
-0.001641098606618835 0.000875483220845458 -0.001085818905462054
-0.001766401969193236 0.000684823586185017 -0.000697463193916776
-0.001898681931058438 0.000432383936238043 -0.001245125282508116
-0.001912803009605715 0.000402100360394343 -0.001087607731966821
-0.001865338572489339 0.000552954161559751 -0.001399618130220342
-0.001814501432896930 0.000874768469574389 -0.001619766015468145
-0.001698388440994161 0.000773681837402531 -0.001522689750300079
-0.001650171293065645 0.000912374885989073 -0.001622766867981100
-0.001517659979224299 0.000889674814227715 -0.001253269826597146
-0.002494687712038233 0.000525904026725293 -0.000667840554892983
-0.002332630546043063 0.000645161599479948 -0.000578000102556987
-0.002090739635251111 0.000794156436686115 -0.000691325037833003
-0.002341551355286800 0.000672713162683702 -0.000821013241875012
-0.002332425391323793 0.000400998101844613 -0.000795811284189729
-0.002214540628856493 0.000560255840529732 -0.000870759869367691
-0.001973037471168986 0.000337214665040879 -0.000831543885656152
-0.002233726418484528 0.000430625744785863 -0.000887898962964423
-0.002113359434640741 0.000457865569673385 -0.001318147314879000
-0.002199161141373465 0.000449579248480683 -0.001159799299003660
-0.002009791400905434 0.000589601921405910 -0.001579540241953366
-0.001883367346017288 0.000711256998779298 -0.001786302174997555
-0.001871630732393979 0.000629764349919717 -0.001689825060847254
-0.001764531842989000 0.000703997168141739 -0.001513056246690087
-0.001794132637270309 0.000771049683724104 -0.001715837184739033
-0.001450360287868946 0.000787126063802773 -0.001328729252769384
-0.001676506225148502 0.000729787530600055 -0.001684935500919386
-0.001564890079903670 0.000862475976995979 -0.001303924104726731
-0.001546524741737988 0.000516766094933306 -0.001270446006006609
-0.001509218395698627 0.000494967143507526 -0.001297832148977232
-0.001393873928883866 0.000630994634444486 -0.001685543205551018
-0.001405540005636155 0.000616878650625769 -0.001700181150738105
-0.002369431870019837 0.000453413445653825 -0.000636249974390928
-0.002321602698368067 0.000501511315947144 -0.000525342902616388
-0.002394970131161587 0.000399371968234917 -0.001167026491613677
-0.002489457690261207 0.000342138850354302 -0.000945590939416087
-0.001917064320351867 0.000668886038369509 -0.001950539570109358
-0.002152687539594076 0.000632681958115667 -0.001914218503838516
-0.002073806887236495 0.000618765806579921 -0.001814649540395674
-0.001920355909680185 0.000684593839921300 -0.001768761603450183
-0.002374521249024652 0.000261177733077074 -0.000748561205279130
-0.002135458095672655 0.000321762705629302 -0.000702499903609572
-0.002382938983174272 0.000290682743906857 -0.000827767563962256
-0.002549230298072234 0.000232649972227787 -0.000974884617388641
-0.002628961341528487 0.000322285698424496 -0.001365195029179719
-0.002755208867398869 0.000282862056906267 -0.001566994688539352
-0.002718228143868419 0.000256868989781148 -0.001261240887263299
-0.002643190752332735 0.000271461774593746 -0.001088983482011004
-0.001769462453801100 0.000675196253840392 -0.002110331166250993
-0.001904481139989792 0.000563020100123144 -0.002136760501805542
-0.002014840504494419 0.000623976778215893 -0.001921381887583488
-0.001835322329614782 0.000711319658561246 -0.002029271725313240
-0.001435962002522003 0.000738562638757750 -0.001471471274291540
-0.001349706271789054 0.000690986887276026 -0.001634233917083196
-0.001577628764868387 0.000756489616390480 -0.001994728106879893
-0.001583118320871813 0.000752214798291994 -0.001852668009844697
-0.001545625685594858 0.000689855176992960 -0.001178334771424395
-0.001479873219302008 0.000610689906846121 -0.001290153944964380
-0.002518359871272644 0.000270944188319219 -0.001248481341150962
-0.002297144549751981 0.000277820589299242 -0.000999487614499444
-0.002467607793546567 0.000246906641558300 -0.000852191901509612
-0.002791031960648555 0.000203817989022131 -0.001190453052201582
-0.002798240264233283 0.000263887786687622 -0.001849835147044827
-0.002685842320624415 0.000256433479014921 -0.001991858721293624
-0.002795967337024050 0.000234331442184812 -0.001716522909645987
-0.002815319738414272 0.000237692073921246 -0.001479482409863701
-0.001720624230532610 0.000577434288145679 -0.002200719523316363
-0.001849292146049345 0.000587061540841285 -0.002263315555267934
-0.001856134127451476 0.000577163384114413 -0.002151121048840984
-0.001694882506744548 0.000647765513082259 -0.002104486920826901
-0.001372795402766208 0.000602437081036149 -0.001644597617960453
-0.001484521669835129 0.000630489772532966 -0.002039869845579401
-0.001563321206402940 0.000666865152044169 -0.002029097430425361
-0.001551417227135612 0.000502648753388269 -0.001312738156750173
-0.001640276954666087 0.000465045497575810 -0.001342849747730398
-0.001414471129038053 0.000567042082230448 -0.001552913794146145
-0.002306503526409486 0.000288040610803740 -0.001287446215316405
-0.002097345201497812 0.000337227360102721 -0.001190473943427048
-0.002317794074251229 0.000291723071287557 -0.001641742068301969
-0.002533798288058360 0.000268528772770530 -0.001744982674118626
-0.002479350682131178 0.000373118568109205 -0.001943481265591872
-0.002267227136903369 0.000387121675188506 -0.001846153746482717
-0.002208581751203172 0.000397367822636115 -0.002241022833072773
-0.002072235697052572 0.000474901712738648 -0.002091195099740132
-0.002160590352750469 0.000449058133926313 -0.002001725645064902
-0.002347446358745955 0.000395785713233541 -0.002145912765782330
-0.002049657618883352 0.000642502634532777 -0.002187434619359934
-0.001970656590608168 0.000552764475035248 -0.002220577160339483
-0.001962913511767618 0.000564269074334925 -0.002201193659148696
-0.001772196085163572 0.000685548539268362 -0.002125577129022125
-0.001410295056096144 0.000655259757470188 -0.001963606692585242
-0.000415776392990352 -0.001967746302127993 0.000282635579691163
-0.000115584052212350 -0.001716869975569251 0.000599853342414845
-0.000374751095102644 -0.001304915856125366 0.000380832879566230
-0.000583484429325018 -0.001590190589308339 0.000178528437499740
-0.001298946677705940 0.000112901615286485 0.000095386530728336
-0.001340897051048469 -0.000048430768124901 0.000306969359042165
-0.001026519877358958 0.000417514711140485 -0.000218620690950966
-0.001179011556791989 0.000307683899049943 -0.000081748055419412
-0.001071424904226360 0.000508140361364190 -0.000389768527458079
-0.001598639241798871 0.000752896312772814 -0.000466091123933320
-0.001234311822236144 0.000642668994678807 -0.000480423712842286
-0.001615486431067919 0.000816027636345464 -0.000729095041307478
-0.001693378884382008 0.000848898639211273 -0.000729149750273395
-0.002122373808235390 0.000638264469309670 -0.000511198352197654
-0.002014726497125007 0.000491636742693926 -0.000434368745472336
-0.002316168956312881 0.000528543343927007 -0.000318404934535210
-0.002152293713359848 0.000417420343406707 -0.000633888289231916
-0.001994359450376365 0.000359604235603472 -0.000662665202198449
-0.001933288476873273 0.000402628101354367 -0.000584792615000661
-0.002051926119215390 0.000333123225290545 -0.000918812471639094
-0.001997257984396523 0.000329176987662080 -0.000846059530107145
-0.001970436294046352 0.000391248107229621 -0.001143245073091951
-0.001371133580871472 -0.000082564802115713 0.000985621248428105
-0.001041093042283027 0.000028185093047298 0.000690927226020616
-0.001044639460426723 -0.000648435272912517 0.000947763541577136
-0.001429636722798233 -0.000812582153565502 0.001219083939895662
-0.000132355481427894 -0.001597122106470431 0.000019113473320004
-0.000192012364693147 -0.001668244359173178 0.000073938143209999
-0.000197548213217284 -0.001351211604903706 -0.000223066539598984
-0.000119814851997779 -0.001177950686829792 -0.000432306605841752
-0.001265450138020924 0.000902582442980389 -0.000559664688905635
-0.001206124385618135 0.000349689490476593 -0.000427364516039447
-0.001131500693761843 0.000180420675867315 -0.000418333735186827
-0.001035147053672335 0.000300587039305861 -0.000360710695727709
-0.001129547951306512 0.000841802794081748 -0.000485044909201913
-0.001295831865310505 0.000733895749871782 -0.000179971298874170
-0.001054743487069436 0.000822510855258502 -0.000330150997548610
-0.001114596776273603 0.000678689140207651 -0.000344626647914685
-0.001689531884345206 0.000691541559601547 -0.001248293242508896
-0.002034366384151298 0.000569712594101713 -0.000527130350423376
-0.001936586010361070 0.000559938384453431 -0.000479580768066888
-0.001691932267867098 0.000811060497609168 -0.001384934899199518
-0.002079515906042812 0.000586450791107476 -0.001721269557073004
-0.002166445000746999 0.000500495673063849 -0.001499815241789806
-0.002464924804925623 0.000441047424544273 -0.001545906348349202
-0.002299191733095762 0.000450449845561314 -0.001299855477784327
-0.002319032399676360 0.000513461313559899 -0.001756137990428459
-0.001040837369378277 0.000505477674607467 -0.000168667192685615
-0.000983781308374481 0.000590431679367389 -0.000190256348048472
-0.001077782746215502 0.000749525490766124 -0.000143515960158762
-0.001163868591417323 0.000671455267229838 -0.000171749598932490
-0.001180511797184250 0.000467990054214552 0.000848964635597326
-0.001361691040504259 0.000548020226834263 0.000838702070988946
0.000668099857110852 -0.000141505020961937 0.001424587063053702
0.000577800936003424 -0.000346469500337574 0.001404236968002679
-0.000319639815799782 0.000073364763403864 0.000466309757695831
-0.000183315158222156 0.000155553814385725 0.000726790401215859
0.000053423860403287 0.000255150695702045 0.001041256368903990
0.000692412499395413 0.000038548702322363 0.001473482615282859
0.000281702932491751 0.000200432071651658 0.001343153139907516
0.000748693336566927 0.000112090156876418 0.001630169705270571
0.000157707884747510 0.000599610521353097 0.000913258382203576
0.000033097885265534 0.000927287002419387 0.000622974802644800
-0.000065461574298226 -0.000661228455660322 0.001522251428619713
-0.000125798568032126 -0.000637759924978523 0.001544067078527512
-0.000062693144868116 -0.000407910213101537 0.001501530239793372
0.000181997117987294 0.000326346526998496 0.002889741056175840
-0.000886385950464642 0.000109104758416872 -0.000042767899189744
-0.000618930336345958 0.000211951402503836 -0.000528329098449502
-0.000651428467849473 -0.000012451011294458 -0.001610733411787862
-0.000245538796400657 -0.001016533609320788 -0.001354183657189605
-0.000324298247467034 -0.001336925495317385 -0.001027264659053839
-0.000299029268917755 -0.001374603660657518 -0.000635967477517861
-0.000179706475653017 -0.001594315454156675 -0.000201912706480556
-0.000852949579576137 0.000384176488497653 0.000513918853648950
-0.000940267140078542 0.000426065043128492 0.000456696122174063
0.000444488571853905 0.000211144489782856 -0.000099890196652448
0.000603585033507002 0.000075816251856938 0.000196672044990904
0.000523685526553608 0.000012094313262328 0.000156046548288415
0.000356002152124263 0.000220003111217449 -0.000145586152420788
0.000305938566320806 0.000148218602703720 -0.000205239352953615
0.000397394985250503 -0.000029210195407970 0.000083409713434352
-0.000570626772780192 0.000113448765972873 -0.000552044114153086
-0.000392107421363209 0.000076542213844643 -0.000346903445347968
-0.000266768864465217 -0.002007672722673431 0.000311800229154562
-0.000406090949252100 -0.002069828884014603 0.000301257584414140
-0.000332885645589142 -0.001681762148506989 0.000050839082357675
-0.001312729784885311 -0.000933882061449396 0.000705506187980921
-0.001410476222824382 -0.001140748686281637 0.000961081577561296
-0.001135169820224217 -0.001331516964846840 0.000593340205600502
-0.001128782773645370 -0.001134530658085246 0.000519521131859552
-0.000663363498292201 -0.000328967926977826 0.000498175221317493
-0.001055038000585938 0.000262035590545860 0.000406404761319346
-0.000093342234125330 -0.001847208426333432 0.000707389818802896
-0.000518370750007621 0.001326046323289191 -0.000322154111241570
-0.000621663039592315 0.001618667205010699 -0.000184285990573131
-0.000596468194692613 0.001540619897235927 0.000036492511615867
-0.000518300800759167 0.001201723912127037 -0.000219980407405239
-0.000207445508226609 0.000608117267762804 0.000568105231168028
-0.000657756628029867 0.000634136875010176 0.000551866489045629
-0.000834209111763770 0.000342137751637833 0.000158776863369246
-0.001355863803302766 0.000610396807992065 -0.000501715950463623
-0.001101294571889498 0.000498222138013790 -0.000540884049853005
-0.001447659456410494 0.000377631746658867 -0.000832036691914250
-0.001727001141821996 0.000407170881501688 -0.000770626732706014
-0.000473018886978025 0.000182373706690013 0.000339544534566710
-0.000184185473687851 0.000205459815308551 0.000102124156762332
-0.000353097769403908 0.000432331982919732 -0.000026301066024893
-0.000563386072584925 0.000497482599753528 0.000090786563129207
-0.000036795742778090 -0.001576032810489522 0.000866717703820968
-0.000168024909266716 -0.001424925776158985 0.000948596917432097
-0.000312558584593027 -0.000175491138120965 0.001641237518723091
-0.000532087560971472 -0.000112951689076332 0.001066073563820498
-0.000619610575445564 -0.000007527492146950 0.001013997391385757
-0.000412658160084278 -0.000082972077550218 0.001436730413145665
-0.000752100147265050 0.000645845369917443 0.000838246814509811
-0.001124713479246509 0.000746738402895880 0.000793060109827117
0.000415458201593408 -0.000244557307093365 0.003010749445012516
0.000457472579592989 -0.000135845790402320 0.002932774678168244
0.000324663404017161 0.000079915179698710 0.002660389671575372
0.000265928064770778 -0.000038294154673601 0.002799893588055409
-0.000691213476510310 0.001516589140294686 0.000420852378121359
-0.000613776919135162 0.001717348196686892 0.000325593497503049
-0.000704235842968690 0.001840386852967412 0.000299099459275493
-0.000728760426806134 0.001686675605621747 0.000409984609177461
0.000128501795755147 -0.001521852191707715 0.000039840819801032
-0.000134222406643252 -0.000914005037194204 0.000433282185760168
-0.001933532853483684 0.000915930511776120 0.000198035543943586
-0.001746042614040966 0.000754951103704595 0.000515327298464116
-0.001735108571728599 0.000744908043329189 0.000659116489669625
-0.001811419506392617 0.000845611348847496 0.000338705071947742
-0.002023998135182486 0.001265050547948582 0.000428763595944923
-0.001939874663385862 0.001135221245716439 0.000097564779857729
-0.001916581757934972 0.001118133490384500 0.000681789498864521
-0.000351090347154005 0.001015215899115116 0.000265990296058587
-0.000531655795384708 0.000955826833721866 0.000551430786622014
-0.000411433691841036 0.000808138537992647 0.000542666863707634
-0.001469425661380277 -0.000533954067840433 0.000807735841494815
-0.000360227901769554 -0.000407808231558049 -0.000453831702271495
-0.000419671173551282 -0.000352080669671689 -0.001518943389873828
-0.000207487543444325 -0.001966253908152887 0.000430417162559160
-0.000196629443628096 -0.001925809518151484 0.000436344248514759
-0.000899348590341989 0.000827344332721055 -0.000744128265539315
-0.001023017108425027 0.000619085986606209 -0.000426976890744975
-0.000739234609644677 0.001362843489208610 -0.000392542976243446
-0.000832808425145347 0.001166289652802698 -0.000191927589760666
-0.001012512242812907 0.000843353655951577 0.000854195269491656
-0.000790189259658299 0.001054094013697935 0.000719467928871482
-0.000482470955022638 0.001149486245855077 0.000664772276485451
-0.000499803749542782 0.000871346320615676 0.000804165445228606
-0.001258673037274266 0.000757569386582349 0.000977004603913869
-0.000878496962611677 0.000890755589348894 0.000772585230775433
-0.001687479881260486 0.000429793481386629 -0.000804899396873726
-0.001746580968257960 0.000431898821735690 -0.000949685060358432
-0.001478747854658736 0.000520373750774118 -0.000783055025685588
-0.001411327478520944 0.000422371696318423 -0.000603628369820412
-0.001297749456998407 0.000221023305771791 -0.000463637084389748
-0.001317909022870846 0.000377899173516294 -0.000632587354999514
-0.001262628471505370 0.000230652707548895 -0.000491457933299395
-0.001164550978423411 0.000169245753191199 -0.000270141033867980
-0.000820308409139689 0.000509977510022228 -0.000046998922953160
-0.000853027690939478 0.000524131064348295 -0.000339384701263013
-0.000700896200346462 0.000647222155933973 -0.000387824887285473
-0.000461995303185377 0.000661777258950830 -0.000345235236124495
-0.000216438138156124 0.000053469999872559 -0.000231112034029670
-0.000140918524294642 -0.000129362689883490 -0.000105906190515408
0.000152565107373959 -0.000170637496227580 0.000015096379675145
0.000020673854581050 0.000035710985511728 -0.000150932600504806
0.000030256353104782 0.000145814459108602 -0.000298190347733247
-0.000121006943015235 0.000046534758949683 -0.000260810611725657
-0.000771796537279629 0.000928292016168359 -0.000861413127414124
-0.000551700860852169 0.000913382049651700 -0.000998400949740438
-0.000426212529525157 0.000769139537421580 -0.000874525435822752
-0.000569508374894530 0.000544232461239286 -0.000595332531992900
-0.000833089845987260 0.000737687483698338 -0.000502171521388947
-0.001210334913911151 0.000294815303871611 -0.000232218630026860
-0.001222115694106463 0.000403231907001871 -0.000284690451468164
-0.000553987030124735 0.000449150805888115 -0.000343984456460916
-0.000727708795921041 0.000648425842316939 -0.000242816769447010
-0.001369088140493068 0.000401542795487257 -0.000647195528581202
-0.001587516710612089 0.000242103075238272 -0.001046691251103492
-0.001221899741149761 0.000486418053222818 -0.000604224358296420
-0.000670638233091852 0.001004413486595919 -0.001019224598173873
-0.000400057954301212 0.001019608077445833 -0.001048781115610387
-0.000802545332082323 -0.000636655417158564 0.000902616863132937
-0.001176244043712032 0.000079591337175736 0.000705112103693795
-0.001535981588476538 0.000573991667131089 0.000737906462114870
-0.001264917273570090 0.000662958503768524 0.000796659507654460
-0.000342714119217878 -0.000452253917506770 0.001695297414884278
-0.000408310951428509 -0.000364222518522571 0.001751364233951015
-0.000298682932207011 -0.000312195453725501 0.001606558709667937
-0.000307247622684646 -0.000466436160194705 0.001443107055402249
-0.000118140526015996 -0.000707933128436265 0.001605166119419109
-0.000213524025393215 -0.000685299655160391 0.001591896030597829
0.000149202852197333 0.001034705465954810 -0.001303641909497185
-0.000236953634375589 -0.000146217905646153 0.001416037245370166
-0.000257312997000609 -0.000157967702390521 0.001484799441847084
-0.000249215818657338 -0.000225505299225182 0.001562855052907052
-0.000279901365323890 -0.000237139280747197 0.001535607594643021
-0.000398251163957736 0.000005741266784162 0.002172662046931482
-0.000451468587577015 0.000158979527642596 0.002401401314366576
-0.000440469578411712 -0.000193593526036421 -0.002125681142807637
-0.000326506724304144 -0.000056063059190808 -0.001910703295461444
-0.001197974120298193 0.001269823098470079 -0.000797832921713341
-0.001202585100053907 0.001293542426902688 -0.000521449883444276
-0.001313093557493866 0.001101507770735217 -0.000509485314254909
-0.001273098060039472 0.001104552774909180 -0.000724764486916959
-0.000373711836577285 0.000311246184986359 0.001417318878446216
-0.000295466458992195 0.000103079445354062 0.001379100385617538
-0.000269564263937850 0.000442388887817008 0.000843825842255708
0.000339476213171219 0.000370622878854144 0.001219004463703747
0.000065619546142995 -0.000697357703626028 0.001839624135341505
0.000453218723138693 -0.000036714520772757 0.002894552559158560
0.000271662279215117 0.000166320210385539 0.002526992599574979
0.000494254489811336 0.000089689796312710 0.002832765758888882
0.000208603259502584 0.000236141397899705 0.002325741871869551
-0.000252938035915648 -0.002536237824047565 0.001089820023975618
-0.000327415971843305 -0.002012753467532753 0.000284362277204878
-0.000901640273408868 0.001435920872220169 0.000474440194378996
-0.000841081235876972 0.001467631410115738 0.000504683904115805
-0.000685077787797067 0.001425929628406654 0.000701672680223060
-0.000776312277812737 0.001405770525135262 0.000624309908858395
-0.000602553232445234 -0.001032624365097747 0.000270284492681846
-0.000763900944000510 -0.001279598682507595 0.000312260172489301
-0.000340227356304542 -0.002262489253360893 0.000778007499495725
-0.000315917823355139 -0.002184223903197242 0.000634894678600511
-0.000448886311894913 -0.002032569705109484 0.000583386979440889
-0.000236443831912146 -0.002145967103590903 0.000992395453573133
-0.001481724560350782 0.000324397830536998 0.000263506844570111
-0.001423990495846434 0.000140779916030046 0.000368531862789200
-0.001331458166933879 0.000274905668948368 0.000137910042555626
-0.001301519849996346 0.000325935232993709 -0.000055839559793180
-0.001637959834115347 0.000719326288822234 -0.000884100886498723
-0.001906447981351132 0.000641019199997532 -0.000685401290068207
-0.001797533677584129 0.000516112328901969 -0.000664679811357249
-0.001701961503246883 0.000473994815881873 -0.000867927259929715
-0.001730906095717894 0.000405298795005165 -0.000963096524072729
-0.001863126227933170 0.000390752025641310 -0.001283610223278631
-0.001866086778428985 0.000373875123353433 -0.001051363299728544
-0.000503657107735672 0.000504276999433201 -0.000059509214349995
-0.000441853744370600 0.000648237806382283 0.000059088005462623
-0.000658878098812368 0.000755981147576616 0.000194196719472800
-0.000762670596502363 0.000576969621752400 0.000045460310783182
-0.000648046203503744 0.001286259332224944 -0.000675670889833459
-0.000557109505375711 0.001205499524794622 -0.000658217140643149
-0.000602599192586583 0.000982079357588315 -0.000762950802640534
-0.000711786030357607 0.001088718398447051 -0.000797310942898135
-0.000481960012113637 0.001072871129659408 -0.000652885745434648
-0.000572405952813720 0.001451513461332805 -0.000466913815890104
-0.000497634056302024 0.001309418292922166 -0.000506386966725156
-0.000439760045949461 0.001026704916661502 -0.000233976633962941
-0.000582392384467967 0.001399750692859278 0.000089835789486429
-0.000578670899399341 0.001269900975725556 0.000163697760677145
-0.000437308572919649 0.000950143801478806 -0.000082593569870551
-0.000357930130401207 0.000753863681036097 0.000110282205917150
-0.000385467482301306 0.000850463312814897 0.000070218105506350
-0.000552928796792169 0.001033725960467639 0.000232550894768188
-0.000567845145063236 0.000924610102051911 0.000288994329307945
-0.000493241080232230 0.000956672410466846 -0.000993277139893619
-0.000679090617329527 0.001131732598995662 -0.001160519058788956
-0.000590280679455082 0.001034141897585982 -0.000933435377261161
-0.000439052872598418 0.000883738144934096 -0.000867403166961771
-0.001232356341053076 0.001225204281532738 -0.000270995732603575
-0.001330056443077453 0.001032243414144376 -0.000214096867912245
-0.000757373860473878 0.000925848472110427 -0.000137547448452943
-0.000631323088813045 0.001150642617251804 -0.000442608563403556
-0.001074218947564534 0.000999837888883823 -0.000640935187163104
-0.001399685584704927 0.000759183433528766 -0.000396945346641028
-0.001102689510093403 0.001060298968002687 -0.000832999627259700
-0.000950220833090190 0.001094169427378596 -0.000371987325088164
-0.001092792168276552 0.001355131385161757 -0.000356687496474638
-0.001159721115286520 0.001320940240542616 -0.000621497971350205
-0.000911719144276158 0.001229521546756856 -0.001211749292413770
-0.001071291347386812 0.001346347610065136 -0.001159820424843442
-0.000928025081607918 0.001344969990771793 -0.000976788575739039
-0.000764255550356323 0.001158503991927029 -0.000946207139447132
-0.000650040148788007 0.001919484434827046 0.000050159533656837
-0.000624856658244413 0.001899941067759979 0.000134649671841398
-0.001218931819609439 0.001186078125440315 -0.000889330479953707
-0.001191314881429386 0.001283428551894176 -0.001047125591798491
0.000140172112635097 0.000329987775045271 0.001170276224107609
-0.000443379296546725 0.000660288365240497 0.000981115210828187
-0.000507412727305099 0.000529602020613386 0.001126399918420513
0.000982576650898775 -0.000366189206218289 0.001995122322196482
0.000923061900663628 -0.000153037621010910 0.002176005046752124
-0.000078299145925539 0.000259147950046695 0.001323474598694340
-0.000446317615218471 0.000416283386745616 0.001013017521207522
0.000876636051583642 -0.000071532705560895 0.002064044077042276
0.000924453663344833 -0.000156486016247719 0.001876277053498331
-0.000248956278934200 0.000156668350441185 0.000664658341852445
-0.000466911144309205 0.000732239254798665 -0.000537266327265683
-0.001161212648591549 0.001256199803637163 -0.001217534370952448
-0.001176631170399858 0.001226810114924401 -0.000988394698164737
-0.000672122949542370 0.001698692253574757 0.000349275376203495
-0.000676913835226884 0.001751929035456747 0.000192984343541574
-0.000581097245527613 0.001517197099203440 0.000153128103502114
-0.000589033826385037 0.001604460835454282 0.000274548499887905
-0.000957417579342391 0.000488305587800401 0.001123876804771072
-0.001383454882223242 0.000605711357608297 0.001164422222692264
-0.001148097779254043 0.000780731557286247 0.001021016962165198
-0.000750785197695429 0.000625689863533979 0.000964253004331446
-0.001128397209717267 0.001368944960264597 0.000303792777003758
-0.001056264507355835 0.001377283555265672 0.000368576617521827
-0.001080078460678069 0.001315654993104177 0.000292893549833916
-0.001124731342927007 0.001397994845010180 0.000210556148726094
-0.001186834501347759 0.001180488313679011 0.000160297058891089
-0.001323527150722513 0.001001089591672385 0.000029424641718141
-0.001241154560520229 0.001215540266143553 -0.000050579022692388
-0.001208416330865094 0.001320001020224072 0.000066231197749173
-0.000436189708156584 -0.001200650042143732 0.001028759626177596
0.000090773829507718 -0.001560137902398366 0.000906467215040296
0.000299558914720496 0.000831668449732612 0.002217452907173427
0.000249297804698124 0.000827122999818745 0.001897242180958498
-0.000993302204568937 0.000131024882621730 0.000404550632553757
-0.000682676286114817 -0.001380796376492840 0.000107370468348122
-0.000606195384481189 -0.001063954412432203 0.000268448435559171
-0.000489866366028130 -0.000639780727178863 0.000291190340262160
-0.000948013933534091 -0.000841705041000890 0.001071646835267442
-0.000701344514080925 -0.000296538822892615 0.000204831275474651
-0.000444498170382987 -0.000453314977423051 0.000233831969938445
-0.000640219842987820 -0.000389302824800953 0.000170093344618156
-0.000405581750744434 -0.000449829135595690 0.000442232251235314
-0.000492196616746176 -0.000482463591725865 0.000256843685660398
-0.000727875184817872 -0.000317652758182878 0.000116266376609611
-0.000670361722829865 -0.000318420595303624 0.000155454671159515
-0.000779756950919864 -0.000144661161938807 0.000033906968917642
-0.001208992388808911 0.000742933470856955 -0.000181732513293658
-0.002603733484361910 0.000334280573442496 -0.001748929067465649
-0.002378502961673951 0.000355868457132996 -0.002177906792486757
-0.002630028268349853 0.000286575114715733 -0.002005985326121651
-0.002391945485939133 0.000426051353183223 -0.001946552427180456
-0.002186823414564031 0.000616616219591224 -0.001838266027846628
-0.002191526568703541 0.000577217700247820 -0.002018796596628983
-0.001564228760053953 0.000745517737905612 -0.002126226742597921
-0.002507840241961822 0.000296866932181772 -0.002200079868866072
-0.002263024375134592 0.000321901842887076 -0.002367269861384826
-0.002113651571414262 0.000487943725613490 -0.002278886925411421
-0.002072343546481054 0.000477288839214591 -0.002319882021810583
-0.000787691954932826 -0.001389809814488562 0.000283059642739835
-0.000406375893894206 -0.002226967847490617 0.000894062562153017
-0.001312096342479112 0.000718070482088743 0.000588501253394896
-0.001376882076783472 0.000903007817410795 0.000359960570743186
-0.000789831199781495 0.000175348581638361 0.000279982966320770
-0.000907713874877602 0.000599319807881781 0.000482801432567194
-0.000716684916095480 0.000655329497733354 0.001098092152419173
-0.000555380796848916 0.000467726489414318 0.001301372809252481
-0.001105785042025540 0.000590152005389964 0.000220356823757415
-0.000935061858212129 0.000646674330000147 0.000653674552996868
-0.001177855557685667 0.000732652488431520 0.000488168812762928
-0.001402998039956057 0.000665892222963183 0.000017092224276709
-0.001839731210297390 0.000929351452045672 -0.000148007731060039
-0.001594917010805948 0.000714735763345703 0.000334939737809875
-0.001657734225115213 0.000741072715051432 0.000355903220376155
-0.001883743424614224 0.000971268613361956 -0.000019961868986968
-0.001446112538704944 0.000533459444362299 0.000808110429112621
-0.001554832533780210 0.000496683090459568 0.000771880775504732
-0.000997210449925772 0.000331832626762249 0.000910271199311965
-0.001071492784987961 0.000519626846814086 0.000607749581197897
-0.001337434994582932 0.000631153281557727 0.000529439423042490
-0.001251382513981495 0.000506435555980264 0.000823020249221836
-0.000463735365723675 -0.000234564017123726 -0.002128105694295218
-0.000416817092181500 -0.001480243555460923 -0.000052317545320414
-0.001412659018431337 0.000013463929193453 0.000625686039968589
-0.001280178151703197 0.000486632516749391 0.000484950155691439
-0.001317907104914870 0.000837424060980098 0.000258638955766174
-0.000970113732603314 0.001182790327006463 -0.000386595248878000
-0.001120859775529389 0.000490276879955652 0.001222070456649773
-0.000864501102963285 0.000345338418627751 0.001124153143653819
-0.001122544205729184 0.001165513106028789 -0.000028887989021621
-0.001133111054086474 0.001082455835288445 0.000180497478883008
-0.001129707681487778 0.001410564086960631 -0.001038751726133724
-0.001485737381391658 0.000845382977959666 -0.000500771131347774
-0.001761143090044996 0.000637690016993258 -0.000775664086449852
-0.001511004625905136 0.000860234074525507 -0.000792123956770678
-0.001163309968073815 0.000143463148723935 0.000561146462825445
-0.001085737471027177 0.000295814636843821 0.000543033680254048
-0.001257512492779813 -0.000022883443626115 0.000728549129893295
-0.000469630895796060 -0.002151614331198036 0.000488406541436914
-0.000538165764520835 -0.002134478487135283 0.000575217278469306
-0.000634031854729019 -0.000386493956779421 0.000208855002745947
-0.000906053612197863 0.000007005706592758 -0.000261611368232931
-0.000802995514754519 -0.000179812904948511 -0.000077962429789905
-0.001104411802693810 0.000197092417672354 -0.000404599660948055
-0.001354880886932966 0.000442585981291080 -0.000662467593632147
-0.001705550977915927 0.000577951434211543 -0.000967657810268715
-0.001975329328507198 0.000627970997081878 -0.001050274255296470
-0.002379094503662121 0.000592949743134590 -0.001032611250242319
-0.002429297438133957 0.000459411895580314 -0.000770876005153050
-0.002340154499535058 0.000349961306558407 -0.000711187031033251
-0.002478362794455272 0.000351918810451800 -0.000751098959718089
-0.002541038827776857 0.000313100232470447 -0.000863345353014184
-0.002600273052443090 0.000255719221671300 -0.000974845592075278
-0.002843695700701440 0.000207811339381362 -0.001408287719912938
-0.002740962713232029 0.000241897863997991 -0.001165811589043809
-0.002555178194073052 0.000272791725261130 -0.001525563432124697
-0.002332548238205751 0.000273806869198990 -0.001543294581735233
-0.000368236185288241 -0.002277025166488833 0.000506251371645709
-0.000493301708123191 -0.002333666600820585 0.000518042216150522
-0.001142120605920439 0.000645021661160890 -0.000172330184177064
0.000094134806886372 0.000751160308964116 0.000935944189337452
0.000018346624700075 0.001027916654180457 0.000732715853363210
-0.001158650494401264 0.001415632520577125 -0.001032758549971638
-0.000413209963227687 -0.002083045717857767 0.000679877643436512
-0.000374130103389505 -0.001870442893515034 0.000414782207359756
-0.000716888859923003 0.001035554150110141 0.000324402246036126
-0.000852650852857677 0.000837009604918844 0.000293680457251667
-0.001049532715788847 0.001458417434625891 -0.000881048509997566
-0.000291376323714210 0.001145249899861650 0.000079158639280597
-0.000492910971293564 0.001280304202698531 -0.000364128116984631
0.000697442464335836 0.000295077824111396 -0.000553170055821155
0.000814791625613632 0.000348042980118654 -0.000496779353531832
0.000902518052239916 0.000284264172927266 -0.000405667587992312
0.000790686482131055 0.000234592438676007 -0.000442538265657364
0.000596275852147484 0.000377281135949899 -0.000598366810981434
0.000737952549686374 0.000442130351358408 -0.000480005161332704
0.000596907814255622 0.000767515373696271 -0.000670155869255915
0.000757902365717731 0.000657525875281230 -0.000534238732098782
0.000684974195486327 0.000688764458755389 -0.000643897508948400
0.000519863286412784 0.000787863204484356 -0.000757300374553625
0.000836138323524486 0.000482227092884931 -0.000491431383103400
0.000686692831534628 0.000509183810779955 -0.000531452079840378
0.000622400071188827 0.000563371521171600 -0.000587099897450622
0.000800205092973586 0.000557454864857585 -0.000564926166689446
0.000808227264255932 0.000560424946974887 -0.000362643976640015
0.000674989386570301 0.000603239507087667 -0.000423683789732980
0.000811808351803016 0.000386039007181171 -0.000314634780039350
0.000917686492178683 0.000376677140183910 -0.000303364740353095
0.000078491652251791 0.000555378824048573 -0.000728758411221151
-0.000098613163545004 0.000550061911250660 -0.000753230767930500
0.000013966389244998 0.000638440266668543 -0.000784339006111113
0.000153770091790584 0.000601124942008941 -0.000773894446740867
0.000432299216398596 0.000156941985851193 -0.000669855914724879
0.000568982620028119 0.000202547807948713 -0.000604231006480449
0.000646408614280731 0.000111648491827847 -0.000470535803377538
0.000518552314850008 0.000048873594270794 -0.000534910483229051
0.000167020118202851 0.000497382179620765 -0.000958817109014237
0.000030561786468142 0.000399226086460705 -0.001084538057806991
0.000051823983850103 0.000526813245263355 -0.000942053261450499
0.000191409496745631 0.000658686752903728 -0.000968708260209439
0.000425239804803619 -0.000035926877188805 -0.000615991249189962
0.000335593127297579 -0.000041831082265683 -0.000772952148310189
0.000515968931682227 0.000604301299806475 -0.000772346213155086
0.000335898832087135 0.000574884165703009 -0.000901518705646348
0.000348214171023058 0.000723149464049370 -0.000922219879713417
0.000536687444085914 0.000699454822848512 -0.000782945329880871
0.001041227717394149 0.000442009371835785 -0.000222010595495815
0.000941794058136761 0.000515984498278693 -0.000281782800227934
0.001032261463012792 0.000387103719859676 -0.000232049328219601
0.001123291468752800 0.000369239910067696 -0.000159469890687205
0.000811665115295446 0.000645354271224406 -0.000641165978988417
0.000652822012453778 0.000662367312694098 -0.000632812105655241
0.000832851036340820 0.000632733949317912 -0.000604637305706375
0.001132646527370927 0.000257063002197672 -0.000343233622594186
0.001043030493007523 0.000223819635584101 -0.000370944700623829
0.000968383325664959 0.000166994310366936 -0.000325154492095577
0.001065281299396765 0.000173719972742974 -0.000284843437252669
0.000289462105685890 0.000864754008831500 -0.000994733566921634
0.000442190191446303 0.000841508954049794 -0.000850615560832615
0.000367817445380400 0.000809761578423445 -0.000920069989316779
0.000216913537552220 0.000804503313718363 -0.001052703292285953
0.000326469309138552 0.000243614986780607 -0.000801214113181632
0.000461641623805206 0.000301366943680786 -0.000720602390450667
0.000956813220522087 0.000211033878794592 -0.000420719039839937
0.000883018698781268 0.000118050322825738 -0.000471906875770821
0.000742243684586825 0.000163283216504777 -0.000460455361545917
0.000857580246862018 0.000164182400164972 -0.000391496393296586
0.000913778238947088 0.000062944111126754 -0.000529536807949626
0.001001149982998421 0.000122789354866799 -0.000472167796608670
0.001000017278086242 0.000152482851553235 -0.000454497252757709
0.000893199642608957 0.000073240649032398 -0.000471903985657780
0.000284650258516185 0.000703579596281588 -0.000839817913650496
