VERSION .7
FIELDS x y z
SIZE 4 4 4
TYPE F F F
COUNT 1 1 1
WIDTH 740
HEIGHT 1
VIEWPOINT 0 0 0 1 0 0 0
POINTS 740
DATA ascii
-0.001719101114972240 -0.001551060573788582 0.000384378599402317
-0.001596583676442371 -0.001234019454317240 0.000416252680733821
-0.003417732008874266 -0.001312641935291988 0.004046735562542134
-0.003174676040028278 -0.001118996440756370 0.003474509928851777
-0.002581303980594326 -0.001982759702302207 0.001420642277061540
-0.002356801769898186 -0.002010603509026229 0.001119241640319490
-0.003370502565501593 -0.001318617542983877 0.003369838943751538
-0.003212764702127886 -0.001195035153744624 0.003115568561180937
-0.001500527926766711 -0.000721792567987126 0.004339058125772384
-0.000237587304903042 -0.000846052846159710 0.001466453773679783
-0.000447037688755329 -0.001022464896691159 0.000751495153091043
-0.000687852582591084 -0.000714293466016012 0.001137565893771185
-0.000582767737740987 -0.000319978999713419 0.000947859076715300
-0.000629450959461104 -0.000335918229684348 0.000803679849864876
-0.000550364334356022 -0.000330254894156602 0.000821613482878587
-0.000521451961350415 -0.000301862530623501 0.000965950502728610
-0.000425723712139892 -0.000729435167829666 -0.000690959972737265
-0.000477816178584187 -0.000760381585736015 -0.001136717763998736
-0.000555284213971681 -0.001012485240096342 -0.000780543719557308
-0.000556105690093801 -0.000952420905615981 -0.000475441395375984
0.000142794124274172 -0.001449272729348611 0.000831142903980997
0.000165936739091421 -0.001562493350408093 0.000793624466123824
0.000350484900568375 -0.001525260756665836 0.000717847889666700
0.000297175990399331 -0.001433963450473461 0.000796499550430372
0.000400259605293794 -0.001610375708487123 0.000598812327791944
0.000204498854684659 -0.001682579136499316 0.000717134686084851
0.000223303098229231 -0.001671021439375234 0.000601151585554670
0.000404292998261909 -0.001618580568416135 0.000459294691236058
0.003357643143755581 -0.000409469989053075 0.000724345325468661
0.003202961822690783 -0.000553757483088809 0.000014886843697696
0.000185212552197265 0.001762165361440715 0.000635569193107120
0.000198411010059820 0.002123907193697861 0.000962760817334126
0.000528375896143296 0.001705102178686431 -0.000990536035522733
-0.000118564457121531 0.001813318906652128 -0.005107176525552572
-0.000067120004991249 0.001659981570838528 -0.004576803329576009
-0.001416942442316557 0.001720353656217543 -0.001578737919053271
0.003118327021024549 0.000102211659745740 -0.000801361781033500
-0.001727443818865107 0.001737579280586704 -0.001246216365249097
-0.001855034436201018 0.001666149059887391 -0.000906110774172077
-0.000192514859831201 0.001565345356996597 0.001394491957520133
0.000735545902098030 0.001504436905051648 0.001430621459144201
0.000755598095686293 0.001614783128390290 0.001509580018738173
-0.000209943591944064 0.001702421148922538 0.001427715276031215
0.001652214311893140 0.001485398249462617 0.001400454578941600
0.001709179948069369 0.001544200383744930 0.001550534681473978
0.001200476691446355 0.002349856517151381 -0.003816723619709985
0.001429687469625677 0.000098997710390456 0.001207378192020217
0.001906489470646178 0.000110747123807187 0.000952274091147592
0.001996601820472859 0.000125765801720844 0.000946228929454080
0.001407829490934429 0.000104548565043598 0.001155568029953572
0.002265413144735147 0.000183809981879226 0.000345521553710785
0.002433994661784880 0.000207223616573101 0.000347671930976016
0.001844239231427943 0.000521742559976247 -0.001752290055332801
0.001412935384551299 0.000186726762075066 0.001100953581874511
0.001917386916703532 0.000143551172148622 0.000936305011898187
0.002196964054827803 0.000176701990594516 0.000399747846757280
0.002177666745427125 0.000201541756179688 0.000404781510307499
-0.000457493583613359 0.001635321678868417 -0.003192566363996421
0.003654200719597849 0.001730096614357663 -0.002855055202294656
0.003402531758071644 0.001495664862749780 -0.002860896265490403
0.001673890833666554 0.001812485074630356 -0.003917787047420064
0.000889699781626629 0.001866045835838532 -0.004341993790557597
-0.001364304592600166 0.001401758243957461 0.003549898545389081
-0.001371422981792243 0.001084450190703653 0.003029091623770949
-0.001705188140941477 -0.000076852451450162 0.003341923259228246
-0.001843129649453810 -0.000326212257018974 0.002798941613616968
-0.001787899429758192 0.000155534660509795 0.002665915923964343
-0.001613723223895447 0.000499992191227302 0.003166305154305144
-0.001645592525157349 -0.000767337943612401 0.001391647000087915
-0.001445946301813689 -0.000876410015527498 0.000782930328111100
-0.001588870869777446 -0.000565099047266030 0.000693064224197937
-0.001716680509445347 -0.000398998940799107 0.001333797640953198
-0.001680199266832157 -0.000261489408454763 0.000654804218409957
-0.001848269647332407 -0.000377403887138708 0.000026126383255700
-0.000467709841739903 -0.000569948777865944 -0.001205393279368022
-0.000736666370238500 -0.000613433498879357 -0.000954816371314302
-0.000472426200771579 -0.000933879055861273 -0.000527853317011838
-0.000321866587897149 -0.000857548325848901 -0.000841566392149256
0.000462145926310849 0.001771857042532682 -0.002628958207276717
-0.000049063595462829 0.001661419215078227 -0.003985857036381870
0.000290896196790651 0.002035397061314530 -0.005403484631261227
0.001725429696680886 0.002079810390577855 -0.004792690057120658
0.002790908869634767 0.002029105284226335 -0.003951304964007997
-0.000625970352787546 0.000350478221142181 0.001148754470404908
-0.000304062398483380 -0.000506101746379422 -0.000098802596535245
-0.000585537601843771 -0.000632174146270878 -0.000053005239112029
-0.000000846786268713 -0.001611666757530725 0.000823812962671178
0.000051570726505306 -0.001703074140946568 0.000738492812675279
-0.000868272239638376 -0.000344805931314496 0.001520143766600570
0.000199847290564768 -0.001545819029434079 0.000209464450953729
-0.000181760839493905 -0.001402749139588521 0.000462483110798161
-0.000069142270821886 -0.001509995961322758 0.000231786540612975
0.001518413531681927 0.001573917490999040 -0.001968025370004135
0.002239791899385130 0.001277086253853679 -0.002092374996042230
0.002031615494429095 0.001537770396600017 -0.002866209932844752
-0.000108563610476579 0.001501746530834385 -0.001905920664990522
0.000285254874786352 0.001856274401789818 -0.004817082283316734
-0.001773365083973135 0.001566380573672751 -0.000585057803593740
-0.001758827136610785 0.001475399483641619 -0.000287300325377185
-0.001656790555297440 0.001380697265548561 -0.000039461848770138
-0.001527051761053158 0.001305133888191502 0.000131205349434563
-0.001191694247997153 0.001288306824071494 0.000177757222818473
-0.000765367210329942 0.001239680701027834 0.000050151174380769
-0.000388889707754636 0.000974031104469566 -0.000188056149686575
-0.000617285067584204 0.000601917849217553 0.000338837582678236
-0.000614661834709240 0.000445136137879139 0.000227513198510705
-0.000361973967112248 0.000306095820947389 0.000840636211430648
-0.000675243758659636 0.000371618565034127 0.000789308892335947
-0.000090604736076268 0.000289080708143119 0.000740914009278575
0.000169973255708182 0.000257257935908592 0.000530899505179199
0.000172711278475984 0.000306986090174809 0.000517046806869943
0.000066971772077868 0.000335253074634504 0.000630246099895992
0.000011251904495696 0.000282175730632072 0.000536864213953063
-0.000010836468060861 0.001625414854978698 -0.003089947840133161
-0.000055014422940858 0.001500583674123693 -0.002602154562243048
0.000050686308280158 -0.000738854613736350 0.000286126184143174
-0.001630098149170078 -0.000945357296269997 0.000750884253232212
-0.001648098322932212 -0.000509061292004471 0.000840828271751867
-0.001007126143485373 -0.000393419944803161 0.001572403868491096
-0.000465049747696293 -0.001397390015875153 0.001532026436759232
-0.000381429653005257 -0.001594091072214037 0.001391738963370765
-0.000712460268672330 0.000053833003870723 0.001207492834641248
-0.001446411052256141 -0.000526729683248043 0.000981354562436675
-0.001197094448118474 -0.000355049681328068 0.000990714647244735
-0.000474229356921674 -0.000665667730806724 0.001168019218197565
-0.000579615294542861 -0.000760873179026443 0.001024959103369635
-0.000558344257308094 -0.000662452317891460 0.000923057587870511
-0.000460065227304465 -0.000587189930990783 0.001063862741251639
-0.000316907840761988 -0.000709598452621455 0.001188627647711740
-0.000319000604694837 -0.000639598068288675 0.001109819519292728
-0.000316476857989058 -0.000428125303376267 0.000187812467287676
-0.000246419256779709 -0.000544845464413060 0.000309099424419930
-0.000286462639367321 -0.000516059774393374 0.000301829556330994
-0.000327917293412317 -0.000371626608164028 0.000193408832760939
-0.000206277122560427 -0.000694522977853754 0.000954046921603335
-0.000191320077230338 -0.000705430468742395 0.000765322601977853
-0.000212922833478606 -0.000732713518887407 0.000792338561670079
-0.000227213822250667 -0.000727728925132414 0.000986919558735764
-0.000458431120052056 -0.000449710376443132 0.000444573082749184
-0.000548586251355611 -0.000656952120380097 0.000591339052024906
-0.000537060141086279 -0.000813386689138755 0.000632067503809357
-0.000445686339617054 -0.000530558196481462 0.000480347960449865
-0.000301930555758353 -0.000554033136164003 0.000197510198016034
-0.000423473584030238 -0.000534282550201070 0.000158156537484582
-0.000495637182661301 -0.000595202704015602 0.000155067525830722
-0.000370236337812770 -0.000618557163441547 0.000234018137606881
-0.000468959076718889 -0.001009672535496112 0.001327194572237806
-0.000571898402643525 -0.001155391747309566 0.001226253865445312
-0.000576989760262075 -0.000949249894098272 0.001134051715308961
-0.000467839953073373 -0.000822064369328631 0.001252525551556887
-0.000030492456520800 -0.000700201060285619 0.000981230884320510
-0.000039785420534757 -0.000587677174848649 0.000602586574955768
-0.000012321978799224 -0.000585384552203397 0.000662225482359138
-0.000032229051839806 -0.000681483926309879 0.001132479332340670
-0.000472984906260533 -0.001155431415023231 0.001423262303021589
-0.000564605284223869 -0.001380069545888812 0.001316906731089225
-0.000162111567012673 -0.000727637904665580 0.000831777009434330
-0.000192576134666257 -0.000657647434919531 0.000532347387627371
-0.000093812264414449 -0.000631922452636560 0.000566035646902805
-0.000073527021319357 -0.000716291703211732 0.000880343211751382
-0.000414453327496209 -0.000383937623791446 0.000420035737766302
-0.000503176963411281 -0.000498282932078139 0.000579212424133601
-0.000538269107127191 -0.000535152349469575 0.000584390694091241
-0.000448922969433174 -0.000410118678233818 0.000410863019059081
-0.000236630969284355 -0.000633513806185079 0.000532471373646660
-0.000271980982943180 -0.000492158531892329 0.000322147143770733
-0.000245899477670032 -0.000651397657517523 0.000522593923104783
-0.000637546908437535 -0.000696663535048939 0.000812810893336592
-0.000580837217326202 -0.000647165283807304 0.000787339681615957
-0.000633028674819194 -0.000716124113646517 0.000868045105337757
-0.000716797419294070 -0.000735732293286246 0.000865018074121998
-0.000232428919202400 -0.000473528506128787 0.000215273021013273
-0.000118554570393780 -0.000558855927174709 0.000377965679828945
-0.000154315782522483 -0.000561993112780255 0.000343729714485854
-0.000247719116936718 -0.000446614802543743 0.000208237581719379
-0.000286163555855008 -0.000879415980012552 0.001377926176955272
-0.000294606597713706 -0.000788332714824714 0.001274463220426078
-0.000785931266018287 -0.000807392422925402 0.000856072001386672
-0.000674571758391171 -0.000825213656257260 0.000949016996972169
-0.000697128102994509 -0.001024103200145340 0.001030730724725373
-0.000819751001798870 -0.000941389285420375 0.000813006861021324
-0.000822266764003337 -0.001202107623428004 0.000827238910120544
-0.000714322563130222 -0.001225218341028129 0.000700988491196793
-0.000757028872029495 -0.001110369880138590 0.000748782467680618
-0.000844590872410654 -0.001084427015389720 0.000869406905045189
-0.000273941376562123 -0.000470644141836128 0.000216217863757573
-0.000358961261083589 -0.000425931503790953 0.000184044932238071
-0.000433076310218986 -0.000582241469666542 0.000452838685398812
-0.000530453683986432 -0.000872158056500483 0.000672165768378411
-0.000530350099583957 -0.000847707124605276 0.000635152917102001
-0.000432657509313007 -0.000636473561737828 0.000317918935164237
-0.000221569709027388 -0.000900743405940514 0.001527919195869179
-0.000443386394604812 -0.000977579397903749 0.001595131823932284
-0.000384413329670853 -0.000970574009419867 0.001602958639250294
-0.000189722776031100 -0.000819907246217841 0.001549945977992492
-0.000512335737296849 -0.001190659387756686 0.001494035647601022
-0.000529568328529526 -0.001193278934527251 0.001527332278309047
-0.000590121538906716 -0.001488050647789104 0.001229389735198682
-0.000642663833917889 -0.001546285292018294 0.001165936107469243
-0.000626272471114758 -0.001558807588452368 0.001200966994620692
-0.000597227044315193 -0.001498462178159153 0.001398467177266711
-0.000636209040846789 -0.001163473644602171 0.000758358109971237
-0.000428392277813596 -0.001175980775540164 0.000589902158688552
-0.000617468354252291 -0.001261406606894537 0.000637650391350649
-0.000777810282830523 -0.001241433426915994 0.000790535495944008
-0.000406154529213370 -0.001069555693302086 0.000525445520703107
-0.000493194887168645 -0.001004281068895728 0.000306844286719881
-0.000476255271047196 -0.000919305760343349 0.000444918457223143
-0.000442273641168952 -0.001043703734061000 0.000625716299599948
-0.000705861375807562 -0.000291538817126064 0.000905247497997908
-0.000782095972865953 -0.000249865703104088 0.000587795663809996
-0.000681824250291574 -0.000500364016856373 0.000536392684186175
-0.000637170230169113 -0.000592606886852563 0.000817340177607644
-0.000635074808178225 -0.000316789991226381 0.000254649709959401
-0.000711151181746435 -0.000282451032819190 0.000297470701214041
-0.000602649366444664 -0.000425683670803116 0.000225077372670497
-0.000496366713532383 -0.000441926758599072 0.000223336821198008
-0.000463027273330335 -0.001207748186303341 0.000785517519099448
-0.000594130148272795 -0.001454268351777095 0.000899918852808419
-0.000489350428775807 -0.001269201271693293 0.001060130341098098
-0.000353282432693174 -0.001024711980230716 0.000992492920533291
-0.000482834142449085 -0.001148070202896475 0.000660462755008911
-0.000285075159868125 -0.001159707536613261 0.000533541963500230
-0.000577067232403381 -0.000395010255116240 0.000240719676944380
-0.000444837213242215 -0.000509153209246190 0.000267253319125801
-0.000439086477059772 -0.000612278218132105 0.000267116859644289
-0.000546974178803679 -0.000539381193135114 0.000188835410793356
-0.000089450455801074 -0.000772286853831177 0.000554483175246820
-0.000161584593025778 -0.000811080368803407 0.001052597841038752
-0.000103457007653825 -0.000786644138540800 0.001267149433942249
-0.000068906436139287 -0.000737497685636356 0.000655065100367764
-0.000275089492558912 -0.000924688648933760 0.001196750324764414
-0.000448251832118022 -0.001120969586888037 0.001248917722395716
-0.000443878970025063 -0.001043916345060873 0.001458014928804870
-0.000269126148604441 -0.000905858542644577 0.001413464264746105
-0.000455984872634155 -0.001151876340743288 0.000519736054539728
-0.000559884313335592 -0.001114378730925390 0.000416970817107835
-0.000586687607428703 -0.001159654103644931 0.000530670589339432
-0.000470131508703031 -0.001146355870804908 0.000577575903970836
-0.000517295462102810 -0.000969214529054482 0.000632115358446884
-0.000583018202953346 -0.000987520368324527 0.000319908525689718
-0.000017022641463925 -0.000690656455271376 0.000609387947434406
-0.000206780794374742 -0.000652408370225581 0.000354869856167254
-0.000241728801259250 -0.000653409993476925 0.000370956850016986
-0.000528995661090920 -0.001230851098948856 0.001430384777158653
-0.000634019567886780 -0.000356877648928446 0.001194929957598556
-0.000614386712950905 -0.000603703426970221 0.001337202580561142
-0.000566476672024896 -0.000390478059447961 0.001400504670998395
-0.000610845163621103 -0.000187212537570843 0.001198053997604496
-0.000702912758427274 -0.000108682956375078 0.000901787946361637
-0.000768570567354070 -0.000047774963167675 0.000613521675831943
-0.000719894747497471 -0.000253364132491484 0.000346775242879850
-0.000622290845261343 -0.000478266804609251 0.000286866922686758
-0.000517147249718742 -0.000720730265518471 0.000337848372302203
-0.000440014297052452 -0.001000461608601251 0.000498227988163033
-0.000365812903327281 -0.000907383965187947 0.000419602577835928
-0.000444856279097332 -0.000622883588691443 0.000230465065371827
-0.000465003036976157 -0.001442173176818106 0.000657392861645580
-0.000555450537323928 -0.001616023043502294 0.000808164565391072
-0.000665783483731110 -0.001594571770188378 0.001047306117666927
-0.000635301288658682 -0.001674911717157683 0.001015434740458811
-0.000634256597571843 -0.000437505962316767 0.000306655158452510
-0.000696809053829176 -0.000284151005729511 0.000353761236246500
-0.000821031607302192 -0.000925670746691848 0.000867510583809234
-0.000755852930175044 -0.000943997072407120 0.000767097297657329
-0.000727651989544285 -0.000789536642748149 0.000772567843473505
-0.000752383141910884 -0.000808631916342801 0.000880416812869989
-0.000607813251378682 -0.000628215652495751 0.000654558243915422
-0.000638974843935657 -0.000689516797682527 0.000636694540358484
-0.000187935409641619 -0.000761065041200839 0.001069231041762087
-0.000142370441860186 -0.000787567963470631 0.001166924698176386
-0.000294370148078039 -0.000598895580752748 0.001038771754824236
-0.000038106921819921 -0.000759654443635680 0.001302466187279858
-0.000022283129216479 -0.000697499969297539 0.001281713758721526
-0.000672432916440075 -0.001309215362959540 0.000877455963406250
-0.000695683207651772 -0.001474854807388907 0.001067999868022889
-0.000700806574648295 -0.001303041799776814 0.001015490500529190
-0.000622362721093909 -0.001103833325237493 0.000436263200178299
-0.000718700218144158 -0.001116760425481615 0.000508732425769787
-0.000687249159567574 -0.001562688163949556 0.001089679263244336
-0.000690856410328016 -0.001463776114084082 0.000889620670357361
-0.000541777760784193 -0.001114050333533452 0.000811165077378676
-0.000623011354831811 -0.001208323408920207 0.000830093140464043
-0.000675023653639954 -0.001166016448526422 0.001026822137327501
-0.000605847585391635 -0.001037912440991844 0.001029229691930926
-0.000377161156709028 -0.001083619406572390 0.000590046480467398
-0.000239039605106305 -0.000900426821218684 0.000787619609122108
-0.000693522622270405 -0.001340425920744420 0.001112085204350617
-0.000734176674968040 -0.001413245753184808 0.001034155296461813
-0.000719349539322500 -0.001602998925710766 0.001087060034735498
-0.000679777352281238 -0.001545792264905332 0.001115270339177774
-0.000650201618900228 -0.001552277694623914 0.001137061824523802
-0.000685184685722612 -0.001139874530289214 0.001237426225293211
-0.000731606681382596 -0.001242510178993651 0.001131616740486013
-0.000414720703950909 -0.001242408974353021 0.000602389342245299
-0.000657406188901260 -0.000867705313300507 0.001227512241800382
-0.000710388975194376 -0.001044785407592253 0.001175092238326634
-0.000656138487999108 -0.000885763935895674 0.001309364053604843
-0.000615612940783727 -0.000650819565953568 0.001386744759581218
-0.000641710748059936 -0.000850053218812402 0.000661396609220786
-0.000621289151808332 -0.001018040986837683 0.000689086704504769
-0.000538769252709600 -0.000699957520994013 0.000184113582789846
-0.000441418700118800 -0.000645978441164001 0.000214931277708380
-0.000587525328588967 -0.000627878309674836 0.000218575238010166
-0.000375759114266578 -0.000314480475978847 0.000237901618994891
-0.000363397468126262 -0.000277468154925049 0.000255124550864496
-0.000329460738139383 -0.000360662243913891 0.000207872869505217
-0.000341584586401730 -0.000349376997353878 0.000244396279691891
-0.000800593470073581 -0.001086299887691392 0.000763497834726406
-0.000541176813626561 -0.000784445195807969 0.000998023891836114
-0.000617644317279515 -0.000845274870880600 0.000700997064225339
-0.000386362653660974 -0.001034459918599991 0.000721969099923607
-0.000760372919405230 -0.000063116029823715 0.000444721107790327
-0.000768977671567488 -0.000185522716191644 0.000401079872741226
-0.000337618103447247 -0.001100499970370202 0.000739120484186169
-0.000770527511508422 0.000053518484212447 0.000544365172665663
-0.000584723012262177 -0.001575929347196558 0.001515457965791744
-0.000539131801533643 -0.001324256242945329 0.001277451955403314
-0.000590289026789813 -0.001459747579965683 0.001131115808166799
-0.000500300808225118 -0.000611984296684500 0.000846129010748113
-0.000133647470169254 -0.000783593705318533 0.001309962901770780
-0.000011736957026115 -0.000615594033526057 0.000656562411272793
-0.000133688146721923 -0.000603816053973393 0.000354703220734680
-0.000477030010618915 -0.000924337054961862 0.001073597305514412
-0.000563443992842838 -0.000789851235150335 0.001240252872877162
-0.000596637812942919 -0.000571389046997921 0.001130337453031464
-0.000215290725568344 -0.000824148924384467 0.000437721131490438
-0.000316593395635960 -0.000603306386527144 0.000250000459737509
-0.000329031790597155 -0.000266909151757388 0.000292569061078042
-0.000254773483960616 -0.000611056560508367 0.000303532853033554
-0.000573130538439428 -0.001527842634460067 0.001426902562204106
0.000030242136462146 0.000076752669191241 -0.002297042111970279
-0.002651431584263775 -0.001921904212215723 0.001903987368879248
-0.002500039325597997 -0.001629785355091114 0.004160730854785053
-0.002575044763187539 -0.001753589490949453 0.003369482403868594
-0.001847814253538984 -0.001704163975182465 0.000900804474344592
-0.001656165640338280 -0.001378216139649841 0.000781628198786888
-0.001411507744776729 -0.000129811825515133 0.000922451674478146
-0.001127230675643389 -0.000132527412739851 0.000920648926536609
-0.002565178511553832 -0.001924471151598673 0.001703321018809429
-0.000169952049119471 0.000639025376078474 0.000217353256655062
-0.000151387224597486 0.000562292511642908 0.000229842235404355
-0.000190201933683649 0.000720040446113330 0.000199394401083211
-0.000100148038458159 0.002171570774410955 0.003650170718748384
-0.000166314679858333 0.000762172492716908 0.000362445512315638
-0.000157342900891453 0.000736244312777176 0.000372384544298176
-0.000164011830071928 0.000732211488275897 0.000363174652398280
-0.000167403016450983 0.000784639035972146 0.000358098734125428
-0.000170566470034976 0.000797828481068925 0.000351991222300117
-0.000204183811657958 0.000801985964692279 0.000220473639618089
-0.000139405083044256 0.000520976996973666 0.000254408826635328
-0.000128667105193518 0.000479074485185089 0.000279233987851097
-0.000198716233119473 0.000830318449143852 0.000263556295453805
0.000070431683754996 0.000942258622176592 -0.000245372348088374
0.000281542573094823 0.001112089370009323 -0.000399612938456571
0.000504644083954743 0.000980615016665174 0.000060440635239484
0.000345871656208170 0.000865463424313366 -0.000016327202262969
0.001137552669328719 0.000978881849982226 0.000555813188076439
0.001132059410302041 -0.000367592297846468 0.000606439382676506
0.000999911044210368 -0.000524403228874584 0.000231595526757370
0.000244671700470312 -0.000151021793656324 0.000060885827445192
0.000324332458515687 -0.000007365868494745 0.000215137578537705
-0.000089138273845951 0.000210512091086726 -0.000068713162325052
-0.000161096018124541 0.000266814232430062 0.000049655153439712
0.000213381245291284 -0.000175803891439582 -0.000183339086979643
0.000176708733328111 0.000062317620186322 -0.000355342402732341
-0.000110100256252203 0.000347396840426730 -0.000124659980613490
0.000211676265877040 0.000419367662975838 -0.000467019332871671
-0.000165958793612579 0.000675987319415711 -0.000166535031000134
0.000386042119433897 0.000884748264619800 -0.000481492946976098
0.000472627382874674 0.001288919112285975 -0.000469929283669103
0.000889843110823757 0.001584433225549382 -0.001125771518130576
0.000156306220222553 0.001906033933232134 -0.000256332623802214
0.000457219779046682 0.001643499103970829 -0.000425829368157101
-0.000356304491996259 0.001884213936629177 0.000437178610478499
-0.000155361646596097 0.001996880427918262 0.000070013837881966
-0.000444761891845766 0.001667574877750547 0.000814341603672858
-0.000421774041730532 0.001775544608114014 0.000672768237072400
-0.000076402039398629 -0.000903043661814917 0.000443337201061230
0.000306886539910873 0.000078152994913685 -0.000127751171006788
0.000351944055798625 -0.000066308290275629 -0.000013265614347446
0.000340081316831335 -0.000092573575708668 0.000118966792402420
0.000586554300379474 -0.000333743494510470 -0.000286301311948761
0.000601766048829357 -0.000323557044281474 -0.000123929007758984
0.000448786328809125 -0.000104036586157040 -0.000510715121469140
0.000410521591644906 -0.000149514409998770 -0.000667148766927856
0.000326045686340076 0.000010660937064286 -0.000306105123599429
0.000353645828673198 0.000037090332432577 -0.000397052205565566
0.000300253544852993 -0.000077542530933922 -0.000231470011005136
0.000040298601404873 0.000056323769733297 -0.000949608391723963
0.000189066553067568 -0.000008726971621922 -0.000501891688990121
0.000468852260415381 -0.000196541416095586 0.000200363647143623
0.000566076036879645 -0.000243872669344832 0.000145561805502405
0.000622809232801203 -0.000333610764320133 0.000144049417370375
0.000575006671716303 -0.000440208665322221 0.000237661463579059
0.000640844375136334 -0.000520592687893207 0.000014216841470076
0.000585385651123778 -0.000518805117979699 -0.000048233042392539
0.000535824400865243 -0.000559632120318110 -0.000000678594300861
0.000618985607419449 -0.000555834650601359 0.000092905152074025
0.000841134018860282 -0.001317223877878427 0.000140683048764920
0.000843412244589123 -0.001096085586275984 0.000240382342260908
0.000714810958601373 -0.001364445575101845 0.000264105714876629
0.000703365834320372 -0.001528907629328706 0.000150052413807633
0.000655755668145016 -0.000498463075973293 0.000104076226099886
-0.000359259760609470 -0.000504865668430003 -0.001842092934763801
-0.000387875152951268 -0.000549585389315080 -0.001351617630310594
-0.000399249392425468 -0.000572789234543918 -0.000855729775544785
-0.000024331276750743 -0.000466485083691191 -0.000102952571917679
-0.000069821056005267 -0.000371350930690943 -0.000093337850437238
-0.000353185203556760 -0.000480171535530668 -0.000132582269956471
-0.000061055408542131 -0.000587265456200219 -0.000188830931011044
-0.000292416226682968 -0.000650133749940830 -0.000186285309567197
-0.000667597555091665 -0.001279498718051793 0.000888097894065408
-0.000613906461238299 -0.001370074901123606 0.000531236016467158
0.000069124246110367 -0.001532083658802775 0.000013042752360950
-0.000745243240417016 -0.000554216576362877 0.000287569841737573
-0.000635964579337741 -0.000728101307874966 -0.000064980004234266
-0.000767730896405341 -0.000665967295166687 0.000037333586688431
-0.000799723500366791 -0.000531108921577008 0.000357654227277149
0.000384231148804516 -0.000151058860696756 0.000214330454473360
0.000728685032077087 -0.001208356111551177 0.000456537939886213
0.000817555427160041 -0.000968906763922233 0.000364995485731459
0.000742646770605735 -0.001060334357041467 0.000510827066915804
0.000604353422132305 -0.001252563128631481 0.000627693083168606
0.000582886714958289 -0.001142311550212372 0.000658317570484677
0.000704285189133150 -0.000993621727376790 0.000516010982674682
0.000549834828705166 -0.000874079368672437 0.000366568516337110
0.000472913890008593 -0.001002303088778629 0.000527440307966323
-0.000589344601074436 -0.000621132150116315 0.000267683351636846
-0.000448579414410484 -0.000726334758819824 -0.000127301367244802
0.000446558599963652 -0.001515660446342266 0.000248080063822388
0.000648428220373491 -0.000806668935367748 0.000120776302844464
0.000509690011092076 -0.000985904980187191 -0.000039141594600970
0.000446130263721843 -0.000791021635329682 0.000110727493896843
0.000539950614027971 -0.000582427428510801 0.000214919065129180
-0.000775020534198023 0.000256800277813887 0.001234560301944704
-0.000739048306656428 0.000253669220254755 0.001179898163504944
-0.000859233040933528 0.000111918546021283 0.001163195288157071
-0.000961851745211818 -0.000608778988989255 0.000374457257223154
-0.000796716181260086 -0.000152272401233500 0.000926292880798734
-0.001065250930370613 -0.000663641873958729 0.001541299599593681
-0.000734394073317660 -0.001013760227166401 0.001166497793568562
0.000285926143949666 -0.001296013077405279 -0.000192431886857811
0.000278844571550357 -0.001105199747039893 -0.000093165354386952
0.000560878974349383 -0.001578224279482233 0.000306728954045759
0.000531069697763291 -0.001497611261305389 0.000420727490702527
-0.000793898986118191 -0.000372362002225048 0.000510064122370047
-0.000774815947842087 -0.000354917706129330 0.000571530507676808
-0.000728613811612043 -0.000333266628684691 0.000701595239466915
-0.000852700613431857 -0.000768200506539551 0.000072662383695560
-0.000892572615003911 -0.000615722765209969 0.000172585010332616
0.000741105144270216 -0.000689982375611163 0.000199239210906826
0.000531980515783473 -0.001396601764032183 0.000601274000024857
0.000427152285841431 -0.001343817152389450 0.000748498169206256
0.000714466541347867 -0.000804339231872456 0.000345366429093372
0.000781484034617411 -0.000813668303461453 0.000358889918429774
0.000724122439870817 -0.000613834558540747 0.000219932361905015
0.000658557325668983 -0.000640673244205651 0.000182554594894280
0.000270491374123803 -0.001102894359897279 0.000683759680319216
0.000021483612195192 -0.000987344849964656 0.000600855897873036
0.000533884113399737 -0.000621622674840523 0.000057373550471804
0.000561065399702043 -0.000727437185116207 0.000184030628412273
-0.000725874231703270 -0.000436602585671136 0.000493644157893478
0.000220808796502565 -0.000895341286881817 0.000075101293563858
-0.000119176654780425 -0.001062036024266442 0.000043076173682965
-0.000117059917045661 -0.000897956610606912 0.000082947704450184
-0.000260459191069595 -0.001328327207900041 -0.000006981951183888
-0.000137340211107990 -0.001235051821351828 -0.000030976718618329
-0.000468014859673823 -0.001359240078466479 0.000213262563096714
-0.000114439518533021 -0.000914915512616186 0.000206160853016952
-0.000387762450025106 -0.001039862025538116 0.000908582796159419
-0.000701791046432886 -0.000334520378777506 0.000751430625674380
-0.000660448661617054 -0.000321689249365122 0.000887673331720265
-0.000711614548765392 -0.000310226137847668 0.000852801412919561
-0.000472201210119655 -0.001005557146592582 0.001490769682990254
-0.000189998055700193 0.001608985319123415 -0.000104978820771236
-0.000158243622685248 0.001629974945150282 -0.000332126345636757
-0.000106727336833150 0.001588933564855657 -0.000342605339864660
-0.000088402528826196 0.001605104761277097 -0.000253555434172459
-0.000649735748812342 -0.001194056648531333 0.000590789712084556
-0.000603798219059642 -0.001139430069543691 0.000491878336066028
-0.000783512959899589 -0.001157002563046277 0.000662933766113199
-0.000695016324905342 -0.001247463879837074 0.001090770399390526
-0.000685298325559017 -0.001474443469960610 0.001123346138880352
-0.000336808046502047 -0.000918040843730077 0.001505229505125309
-0.000142902587431779 -0.000787805989262860 0.001481237921605603
-0.000126500476610490 -0.000540415254545213 0.000391203823919056
-0.000523208777684622 -0.001107249816171516 0.000704438066187005
-0.000217902253185325 -0.000508307481691670 0.000902307748139302
-0.000303043900408388 -0.000504727304682118 0.000772010223799073
-0.000216693200503834 -0.000417960191862553 0.000769319127191823
-0.000145893372125433 -0.000461600346358727 0.000876119729046555
-0.000095437403393715 -0.000359037310902321 0.000832702451513290
-0.000058283868750355 -0.000401128839165019 0.000847305840370259
-0.000114389187644980 -0.000528162196219627 0.000895945988208489
-0.000046952058914308 -0.000448233675372300 0.000762419616413911
-0.000099082749426911 -0.000553098917311539 0.000729096112569185
-0.000062230075595066 -0.000418009814958547 0.000560018748786904
-0.000125020575756670 -0.000313522098433565 0.000435951311121591
-0.000150772157920886 -0.000394127948407322 0.000456798720058898
-0.000095815694908841 -0.000485611369867999 0.000544197244858308
-0.000200508987361416 -0.000400798710344423 0.000395880572325533
-0.000204248651147492 -0.000339392778520510 0.000419638541395209
-0.000188670127439151 -0.000169269236461678 0.000421083322075321
-0.000207699030082309 -0.000192408294388945 0.000360569589435930
-0.000277462127154710 -0.000374815409416633 0.000412408162324559
-0.000366712767508875 -0.000491266418659041 0.000412272704740645
-0.000351942244155780 -0.000494636044939591 0.000516588757219269
-0.000269300759548119 -0.000338881900915422 0.000479443101986129
-0.000488961241498095 -0.000742826872643416 0.000668542476537173
-0.000477549560534447 -0.000635888266933923 0.000602805979430187
-0.000425981517292708 -0.000629433953018065 0.000571631568360315
-0.000407715249038922 -0.000701528411477032 0.000611803771651557
-0.000382235990801645 -0.000608842657048262 0.000469292286604705
-0.000296003981637789 -0.000523203186009633 0.000440568624251675
-0.000348190751175156 -0.000607596655288467 0.000510333573520005
-0.000404735347683221 -0.000544484025260712 0.000968632429550014
-0.000312702693947451 -0.000520089862390921 0.000933031857155789
-0.000223649707219936 -0.000586067040746920 0.000999006176397736
-0.000126252460525342 -0.000575769621663730 0.000601994759587171
-0.000159711487187297 -0.000652518489492602 0.000696139712848083
-0.000165303449815093 -0.000656863154435754 0.000890056353936673
-0.000127687059645189 -0.000612998866751761 0.000791027944176261
-0.000287587266506302 -0.000312188184698672 0.000234457260497991
-0.000233186154715620 -0.000448075270671412 0.000352653134851423
-0.000241461651035558 -0.000242949553338547 0.000290322580824078
-0.000158916393924329 -0.000501039735922938 0.000476456709544634
-0.000191183041623638 -0.000585397656022333 0.000507130931734978
-0.000234934963105047 -0.000214982894210017 0.000387227922534341
-0.000197710638032897 -0.000208259385359588 0.000449484429395923
-0.000367002183043034 -0.000595808076693840 0.000681899605294002
-0.000417560072087062 -0.000618763801151711 0.000620456433450972
-0.000308722025027145 -0.000547113049706972 0.000533951812794754
-0.000272813114148530 -0.000496661160851206 0.000631870045391000
-0.000285853198015980 -0.000236818257740062 0.000329743257308379
-0.000531753192910996 -0.000664236489272140 0.000712649564598184
-0.000475852110549262 -0.000634398928653507 0.000738670574371414
-0.000450814059676617 -0.000714313819063683 0.000643178615079532
-0.000569507014860029 -0.000770127528888570 0.000767231025595254
-0.000212968665853260 -0.000409245081681393 0.000613907199039993
-0.000164703665634935 -0.000327508755115049 0.000741268408774386
-0.000403507902812467 -0.000576831860798889 0.000817748708166336
-0.000301159922240078 -0.000355811300416517 0.000466841016648283
-0.000384690858411382 -0.000483877773929886 0.000561735634424984
-0.000449416389094219 -0.000483081423666419 0.000574439398171381
-0.000355370016859682 -0.000361210578181552 0.000444781012096018
-0.000664699225456149 -0.000746587444407889 0.000790514770812530
-0.000545825767007855 -0.000622264253204820 0.000653447031680507
-0.000593000882890198 -0.000753290054066054 0.000768513578304648
-0.000433756307893335 -0.000581698621788746 0.000449425912911532
-0.000673926928558189 -0.000769733639843041 0.000852018545504938
0.000039576552131412 -0.000260621714629379 0.000505594921588335
0.000022844969097117 -0.000240957955636392 0.000509173739055424
0.000035100110297859 -0.000243867845630557 0.000492891994200462
0.000049062003029081 -0.000262576170262924 0.000491183215159940
0.000003351130613469 -0.000196709239036637 0.000502641661894662
-0.000011753397929088 -0.000198015540763361 0.000509282231955180
0.000006007539622790 -0.000213500037280671 0.000485481856502413
0.000018281595071271 -0.000207560919818812 0.000485894990994911
0.000057642869630981 -0.000267642673129666 0.000481018609524537
0.000043005990695702 -0.000249359015181506 0.000478629321176460
0.000057167790636065 -0.000277783291701678 0.000476995331460565
0.000071914310049479 -0.000300717438840518 0.000485833937132910
0.000071200946776538 -0.000284609783498191 0.000484413909340315
0.000085717474308753 -0.000313297580376624 0.000485405857196276
0.000063594081992733 -0.000323399767035554 0.000503163794646495
0.000083155578085854 -0.000333256006637288 0.000499538925364419
0.000044079129143182 -0.000360401365541521 0.000558666029739143
0.000029856147700082 -0.000376119064444889 0.000568736727979454
0.000061574906490848 -0.000375707833630486 0.000560338447245011
0.000072817972394547 -0.000361895923691219 0.000544711856998536
0.000025760882127482 -0.000393585451439986 0.000572648976358088
0.000046715846489334 -0.000385202552711863 0.000568314455776659
0.000012829103095945 -0.000389089823290924 0.000571816038519023
-0.000008222598373249 -0.000401576342912099 0.000568269541999560
0.000017324010724302 -0.000266639523018970 0.000519062864728384
-0.000001879799283088 -0.000247787125036283 0.000519819030765462
0.000010431963012324 -0.000241559167805482 0.000521267238054700
0.000027010274060518 -0.000261604557845910 0.000517524113624238
0.000051735130214733 -0.000282839426394843 0.000469200296852737
0.000046427003628111 -0.000300158439728780 0.000492388684931895
0.000054535588063058 -0.000296159841878463 0.000483248269047534
0.000054639308162237 -0.000274989312741268 0.000464551387421242
-0.000120079329894824 -0.000286730154618046 0.000458519752735439
-0.000144449912177687 -0.000273785638555761 0.000448456221892900
-0.000102803690189498 -0.000213220178131822 0.000468268136112788
-0.000093539985730052 -0.000244014051660936 0.000470474515023389
-0.000034950316870239 -0.000180571120417831 0.000546784842913200
-0.000038641933345050 -0.000170370248013607 0.000550909284267948
-0.000025535744455077 -0.000193155052201939 0.000637236340476692
-0.000031743083778930 -0.000198373216983511 0.000576591254368160
-0.000026768574822286 -0.000190609783802215 0.000524057174253985
-0.000029265108923811 -0.000210184077392178 0.000540434958355685
-0.000017003821339839 -0.000222851947413304 0.000512124073408281
0.000001214927615709 -0.000234680755082397 0.000484627019762413
-0.000185580073866125 -0.000331872126317075 0.000427987787205401
-0.000161408026570869 -0.000340101039315547 0.000446386596161660
0.000181625181432670 -0.000304008260806417 0.000487627998230590
0.000182312406251380 -0.000301838500591561 0.000498911724555721
0.000170739984173009 -0.000301769207781339 0.000496787095130446
0.000170412343796163 -0.000304246066725284 0.000486538807789451
-0.000189363181568876 -0.000461224838824347 0.000452140612470323
-0.000171759641005712 -0.000479841661980343 0.000476367361304432
-0.000222025402472323 -0.000525285206575412 0.000431506850182570
-0.000237964440226984 -0.000490375659360233 0.000406345674605281
-0.000143455567172781 -0.000437879852186576 0.000492146264158058
-0.000126787124892986 -0.000451072605132577 0.000509387566999783
0.000187082792264688 -0.000330273494717637 0.000487395337874026
0.000184646125951156 -0.000321256141296846 0.000481117943291745
0.000172849456644134 -0.000324173290112813 0.000481906216866568
0.000174868961673271 -0.000333411500622791 0.000488778254907477
0.000064251384581208 -0.000275721467820391 0.000491224830275300
0.000053742934511987 -0.000274785604120372 0.000500699356989243
0.000097459486239464 -0.000288952185188644 0.000495564708545507
0.000073826617273727 -0.000283460229919653 0.000499417185645983
0.000080561509237124 -0.000284515169533485 0.000490191303279387
0.000097492256688232 -0.000291646098197095 0.000489631783062094
0.000050393155304561 -0.000293715472835456 0.000521744554418392
0.000029511158854429 -0.000285609369783669 0.000517182375480156
0.000044514722993087 -0.000280768690198554 0.000514352871801162
0.000063520223211658 -0.000290375413314030 0.000516836626002962
0.000005107509351669 -0.000301707925827584 0.000516276061768526
0.000029540279803616 -0.000304761126623752 0.000526885578813260
0.000020078901563812 -0.000311132700515343 0.000532493231048327
-0.000000876319448839 -0.000309761640798518 0.000524650747436868
0.000081908827836167 -0.000309049751450561 0.000541298316195898
0.000102028808639196 -0.000318359304576984 0.000547663734381635
0.000095981460624377 -0.000323562424982170 0.000555224113486801
0.000074993654738719 -0.000313333498182410 0.000545526311691109
-0.000288931783252037 -0.000585054517906689 0.000376945251773919
-0.000297083707645133 -0.000520478683951719 0.000360913742193235
-0.000014007900916847 -0.000404258305345423 0.000569779488351055
-0.000032658490815880 -0.000395219277665404 0.000561398040014854
-0.000004783222560356 -0.000381798886841340 0.000580638196269561
0.000011305920953846 -0.000393857324866454 0.000583501761805169
-0.000141367981892032 -0.000470405398653905 0.000507459440794267
-0.000186744457855464 -0.000516816776288523 0.000468793818724897
0.000189195782336721 -0.000335063182282394 0.000498407815590171
0.000176724729205317 -0.000338842385376852 0.000499347984334714
-0.000009552734858086 -0.000246036473755062 0.000534854048446195
0.000007908226972399 -0.000254895444090912 0.000498873471351430
-0.000019973827010756 -0.000236227781852719 0.000576885853946774
-0.000021101351877079 -0.000228128862805252 0.000627846307998114
-0.000015630715910910 -0.000220211599652436 0.000702337744472583
0.000081789887490659 -0.000291107422372935 0.000508563864306022
0.000042978816633764 -0.000272248061488145 0.000512075952043119
0.000005350029120805 -0.000273185065733718 0.000513744047079602
-0.000043190210475726 -0.000330813853505023 0.000525275952358658
-0.000073310567697947 -0.000342967289257775 0.000510388627605277
-0.000053105423077448 -0.000315405152588012 0.000502175299894271
-0.000029016394423045 -0.000314624400636833 0.000519512717033563
-0.000033224665791084 -0.000366644599468026 0.000559084846043172
-0.000026970810867713 -0.000344248519733810 0.000548009810586176
-0.000003294211421401 -0.000338612050090714 0.000560329952817778
-0.000008203105579740 -0.000357681482341118 0.000573168047288664
0.000051234658038777 -0.000281730677261031 0.000471777973452055
0.000037371617142087 -0.000289257461407850 0.000501435028438341
-0.000187395835046195 -0.000412797942219134 0.000440534361706902
-0.000225660137295737 -0.000420343561935678 0.000408556501118679
-0.000262753099211330 -0.000427376713379408 0.000387805903810107
-0.000045116924075681 -0.000238052784461337 0.000499211086265810
-0.000066657481605861 -0.000208330341288244 0.000491717259976077
-0.000042671234260238 -0.000189087076877983 0.000518909900363282
-0.000023289701867475 -0.000220424238804238 0.000520264514009971
0.000006757235455140 -0.000212386335998544 0.000514931654503955
-0.000012661767095594 -0.000186708707538612 0.000521067433345159
0.000019977921075800 -0.000218348069532160 0.000498836509346474
-0.000066785724776339 -0.000175764258598595 0.000500645580393654
-0.000090811806043076 -0.000160693976724424 0.000471593656370207
-0.000058641002969047 -0.000146968818899217 0.000500391561623025
-0.000144645657947143 -0.000242307498494367 0.000448878616503934
-0.000206121005844698 -0.000337634022220383 0.000426432679541214
-0.000081758008859177 -0.000097679241092494 0.000457832728285169
-0.000069313302275205 -0.000130816815698524 0.000442888253506284
-0.000108141006405393 -0.000157397137745634 0.000469756009707110
-0.000189685874549901 -0.000296722316513458 0.000458832657227341
-0.000329898246924758 -0.000682274665476697 0.000374556966507697
-0.000384058459983296 -0.000653142043697916 0.000308510608905094
-0.000242189372316802 -0.000589492489958776 0.000423078848325085
-0.000015543469541552 -0.000208580377212063 0.000745063452174555
-0.000024562395033751 -0.000174037315732040 0.000578789771891082
0.000001484298273430 -0.000232681707466002 0.000558834032111198
-0.000010576786364262 -0.000205988692527046 0.000791277913553258
0.000028768991109822 -0.000220614919947357 0.000470221005765601
0.000039778553992135 -0.000229696993073018 0.000453771115245280
0.000048822062212490 -0.000237430862046548 0.000459365037519870
0.000039281367566519 -0.000231861537567230 0.000473275512913156
0.000100915233908338 -0.000320267667495509 0.000487803702175537
0.000099225635647450 -0.000303474933655256 0.000484773106902301
0.000084876159150539 -0.000295880575135706 0.000485695285036068
-0.000114178886917386 -0.000321649706962077 0.000456901526626881
-0.000140309674398910 -0.000359411765271306 0.000461181680572935
0.000100146654289818 -0.000295186026412618 0.000504204422982726
0.000160149710875784 -0.000335572575171685 0.000490366168190589
0.000158439519764196 -0.000325128871225257 0.000482888774606229
0.000133885147393636 -0.000324706627285117 0.000484376422821188
0.000136331084698828 -0.000337260795309176 0.000491770459485994
0.000118531614048104 -0.000310206037944937 0.000514542171269197
0.000114174812757578 -0.000300832655124683 0.000503286974098358
0.000131347040892902 -0.000302674940064609 0.000504993424225924
0.000136201795348948 -0.000312876399718942 0.000515891909157363
0.000084226745051948 -0.000323066153854822 0.000560222530594737
0.000065827825534786 -0.000317550823698131 0.000551964122383456
0.000097344775367550 -0.000354545911918740 0.000534895379751360
0.000098624019667228 -0.000352151946820923 0.000515767456249048
0.000080090711997104 -0.000349446444019641 0.000524520468731809
0.000039622900455107 -0.000298535301277198 0.000524748489827785
0.000061117141451404 -0.000303309050185636 0.000533006746337452
0.000052914885515068 -0.000308488043639331 0.000536521492012582
0.000087411362042283 -0.000297435905370468 0.000513877434568119
0.000100610078558227 -0.000302116537935361 0.000513035932139613
0.000093891762934257 -0.000304044496228231 0.000519512775078029
0.000078399611349491 -0.000297178973572408 0.000518829476298919
-0.000068569380265346 -0.000409338383599866 0.000542224542064774
-0.000068593334347542 -0.000371439851895109 0.000539240925006469
0.000182575391179406 -0.000311551289367900 0.000481496609578401
0.000171230416609384 -0.000313282657328236 0.000481323010551317
-0.000356104622944621 -0.000513321270390594 0.000331175949782767
-0.000280906856716612 -0.000413137944389238 0.000422076489561609
0.000016735856110514 -0.000292887584285923 0.000516409052882073
0.000054004599400324 -0.000343298149655293 0.000537543841480081
-0.000009735716629916 -0.000284098930817736 0.000506690917580889
0.000060190232667974 -0.000373538023187400 0.000581819297046397
0.000057821482619101 -0.000358212058481604 0.000582287242893205
0.000075364698330685 -0.000354952954065855 0.000581539343254519
0.000079749068392646 -0.000367925843104887 0.000586167221113003
0.000159895509212375 -0.000315239138448951 0.000516565865510686
0.000156728700521555 -0.000305583331817410 0.000506469730101618
0.000172450287032320 -0.000306900439327780 0.000508564551883239
0.000174958912054933 -0.000316320202274079 0.000517438593448705
0.000111492321487296 -0.000295687999508561 0.000494678016394575
0.000111287846460682 -0.000297221468949020 0.000487301833039639
0.000129088628901190 -0.000300738230820081 0.000486559319151290
0.000128961364679822 -0.000298034397743381 0.000494121171159780
0.000113429604064537 -0.000308770758414809 0.000484510608618903
0.000131369017330151 -0.000311566750138678 0.000483160784453112
0.000162987337547334 -0.000329087727697686 0.000521015180305514
0.000163080086107401 -0.000339939131938722 0.000513928245190228
0.000138789843276878 -0.000342172948814299 0.000516982764566112
0.000140348260088215 -0.000328057892205245 0.000521104480600496
