VERSION .7
FIELDS x y z
SIZE 4 4 4
TYPE F F F
COUNT 1 1 1
WIDTH 747
HEIGHT 1
VIEWPOINT 0 0 0 1 0 0 0
POINTS 747
DATA ascii
0.000520474498685293 -0.000293016387873390 0.002164464032994691
0.000534375135576541 -0.000269053110639338 0.002146877657867838
0.000531582993273314 -0.000248355843364225 0.002105509880153792
0.000520387613031899 -0.000360986474631179 0.002194017044306906
0.000505014000933076 -0.000333273135881367 0.002154531425832886
0.000532198031892760 -0.000306911135143910 0.002167515377435002
0.000543733578201701 -0.000331190454452731 0.002213001676890059
0.000525595623818124 -0.000360833054061623 0.002262739183345647
0.000525846417449125 -0.000340899478552474 0.002252083333054641
0.000519810615512939 -0.000331541764269085 0.002240907644454934
0.000487709211313282 -0.000369731561529904 0.002164979512466607
0.000480175954437227 -0.000411287335310841 0.002218573005271458
0.000456457027609793 -0.000391874655272021 0.002191159459595003
0.000466014859201857 -0.000356188128154614 0.002136500052874781
0.000547759035688611 -0.000295253206233269 0.002191904420772901
0.000553526697361986 -0.000306612925287042 0.002206788532109062
0.000553719724390549 -0.000289048181798764 0.002194831569958663
0.000470357577808758 -0.000326370351588175 0.002135726782027912
0.000464209192700288 -0.000331529342847425 0.002100094700680988
0.000504190982864809 -0.000277556538957117 0.002031746521702538
0.000521619823145763 -0.000284306463446977 0.002054240246647548
0.000497876863602594 -0.000319736366974512 0.002112738110782521
0.000472809284748860 -0.000323240960479529 0.002087598937727924
0.000477840287919819 -0.000348753896716462 0.002133289441234642
0.000469911663039190 -0.000302320350844377 0.002061363995280000
0.000562729699253505 -0.000256681100695722 0.002082895663981952
0.000569636445055938 -0.000234848662644403 0.002077676200861919
0.000557776875892412 -0.000223760074246920 0.002058795531868795
0.000453225895862949 -0.000356320038870214 0.002186054763798902
0.000502786001076768 -0.000407885903215443 0.002245562613074702
0.000540603741055712 -0.000225008730143629 0.002033198894609227
0.000523198801949676 -0.000234928241185239 0.002009181217827194
0.000522134893602817 -0.000299614836970240 0.002128755400500723
0.000542086533144704 -0.000268193761958954 0.002077993472291730
0.000499611549570535 -0.000267811928584761 0.002006240677549227
0.000504935865230534 -0.000245261500532427 0.002004883055773153
0.000511256374470392 -0.000221580121131683 0.001974508439516706
0.000502263998379960 -0.000234522596433369 0.001980597630494744
0.000528030123332248 -0.000205138518142429 0.001976005317639010
0.000543092181559208 -0.000193703720213384 0.002003541515548911
0.000556826653807088 -0.000193407875563699 0.002031662020231248
0.000510625322909988 -0.000244570343639567 0.002003104270811312
0.000522380752461851 -0.000249758798416564 0.002028411353384454
0.000538310914723882 -0.000247692315784734 0.002050918436167543
0.000509112998499270 -0.000220102674785451 0.001984770887270340
0.000505796095533557 -0.000211130561900206 0.001959674637334546
0.000560465536102662 -0.000106842954409757 0.001916278454489532
0.000542224954845331 -0.000125395028649724 0.001899536219375137
0.000541985491387131 -0.000140751289023090 0.001925491765158810
0.000554425351557111 -0.000134429365779326 0.001933940770518590
0.000532472445037407 -0.000154845944475620 0.001937376814904956
0.000541549336964866 -0.000168522022031325 0.001950500359887583
0.000526320627692926 -0.000148630665051948 0.001919073209474261
0.000520979298664231 -0.000180095323616260 0.001938765284038530
0.000535387194913915 -0.000127211447649397 0.001897860126401523
0.000512975640875623 -0.000153713559106782 0.001905035065820673
0.000511825619854065 -0.000181067092889311 0.001929177966416146
0.000515230528277472 -0.000190418035373728 0.001945767768333349
0.000560911415984313 -0.000094175888552731 0.001901121340750446
0.000554771785947609 -0.000094784698960136 0.001893663301971350
0.000520446564190098 -0.000196008726751021 0.001955784834662800
0.000562157187192372 -0.000162514779022408 0.001986178444418995
0.000572637575896401 -0.000133185408283101 0.001964492852117168
0.000574460388129162 -0.000105524641356106 0.001944178067644339
0.000568322815643958 -0.000091716240216302 0.001929727001598129
0.000587339957072385 -0.000143132141343951 0.001995483949197443
0.000588806625603188 -0.000116781722022091 0.001969941449824260
0.000576802116935457 -0.000090598014062311 0.001958084895581746
0.000591910980450913 -0.000160984689395229 0.002013544469018309
0.000593574030116988 -0.000130127354026030 0.001989753660581415
0.000573980265647785 -0.000168524537428807 0.002018954871790677
0.000576756062660771 -0.000182821584822125 0.002038700791695094
0.000581793032226756 -0.000109714148640809 0.001973121815822582
0.000556623075512867 -0.000102443765226633 0.001923835863177061
0.000555650333147105 -0.000100392709263462 0.001892705920188873
0.000550765470294869 -0.000096596954442833 0.001876713405456238
0.000523521857409872 -0.000183642992881701 0.001945414950689220
0.000528156719245708 -0.000156738881067500 0.001930746478563446
0.000520697466669705 -0.000200897800465652 0.001970934155867658
0.000524654055788693 -0.000168911915715102 0.001949981536879114
0.000518498192862740 -0.000133317642861246 0.001889092734605240
0.000521217068337662 -0.000133443111741530 0.001902023720906813
0.000566451883676487 -0.000215233351823910 0.002050335255830131
0.000557715342543101 -0.000236684647197932 0.002056691895797253
0.000553934440677211 -0.000214585964989976 0.002040214515704893
0.000565118385464363 -0.000190470120728002 0.002013842783792958
0.000535785505066757 -0.000235867354837652 0.002032644545615453
0.000521728007654161 -0.000233075433395724 0.002011119312325530
0.000514917159909437 -0.000207011170252112 0.001990208385131667
0.000544845515147533 -0.000218166706220924 0.002006584507748698
0.000538172721827084 -0.000173931943460608 0.001972365768194065
0.000553229456756045 -0.000178308066354376 0.001985694257891140
0.000579496587970911 -0.000154585997281095 0.001993296335112072
0.000537616076250070 -0.000139065854550310 0.001958266486960790
0.000527015933754694 -0.000139248739133716 0.001932040783048834
0.000546559780013150 -0.000112873872955770 0.001949727515049597
0.000557080305130787 -0.000130035653119737 0.001968717299057062
0.000550818236665566 -0.000147442226066935 0.001972940745983524
0.000520461867041604 -0.000384312841836114 0.002267360315382200
0.000420317986769245 -0.000465041424220743 0.002260256871182751
0.000432528715705674 -0.000466499532677332 0.002282108543352347
0.000423902057090194 -0.000480595604239460 0.002285469757119303
0.000411755182559232 -0.000481988894138117 0.002264809567419263
0.000372581627806546 -0.000467507570618289 0.002190410975607906
0.000389983424875816 -0.000466188679320394 0.002214131873383717
0.000410718506713659 -0.000458128933094754 0.002240027839143465
0.000397836333235509 -0.000454362877146279 0.002217567492297778
0.000358961236794593 -0.000484324856693389 0.002180247960969125
0.000375439255852649 -0.000491609500468481 0.002207706571975204
0.000413913782599574 -0.000468177219570475 0.002247172119360776
0.000434050423341732 -0.000471756135088565 0.002294389619441971
0.000437151366319033 -0.000471301826406491 0.002302466457088282
0.000426060552405414 -0.000461312015629245 0.002267690680521509
0.000466386281501542 -0.000526358428847090 0.002359551862757616
0.000449206994941757 -0.000525362555519397 0.002353284696535982
0.000454864452668132 -0.000509450610255010 0.002357131034142501
0.000481236450903959 -0.000504473334189125 0.002363809777265764
0.000428526684891179 -0.000459775181226240 0.002268873991421709
0.000416016788276261 -0.000456628480647453 0.002245961315483503
0.000431579837927258 -0.000515305406633853 0.002308710274586783
0.000398513601265791 -0.000515931811098593 0.002274956145082303
0.000411776149649647 -0.000501380157613389 0.002284195022246176
0.000441691896903171 -0.000502200524417493 0.002314133811830535
0.000484677123249310 -0.000506079258857147 0.002360164467841257
0.000457722768418021 -0.000503627842024691 0.002351361260413176
0.000467173966592302 -0.000483651423945861 0.002336529895382793
0.000505041495140711 -0.000496839130875618 0.002339071172860406
0.000458238272987518 -0.000475491709122064 0.002316761361736797
0.000424643082919542 -0.000525329743749280 0.002290589660935132
0.000439065277932357 -0.000537145886777509 0.002337809738112671
0.000426468223430134 -0.000522637126917287 0.002296819775179668
0.000402601164071659 -0.000518835995884790 0.002251561967187868
0.000447298563583347 -0.000462852834810390 0.002290415178804879
0.000443445039196541 -0.000490141734742775 0.002313398309401576
0.000452319286588087 -0.000468194091384640 0.002306599852363732
0.000410632985484667 -0.000489413077399990 0.002240027228181526
0.000371468678891332 -0.000512946086271978 0.002218350329532301
0.000358156610072046 -0.000507124888781461 0.002179031597073331
0.000372727382554001 -0.000508042953740252 0.002200789855214950
0.000376061533909330 -0.000515688892247205 0.002246428080284105
0.000360650814470364 -0.000519272988340522 0.002221991253849542
0.000388730869214924 -0.000521004289740410 0.002256221246902177
0.000344680207047481 -0.000500694686072193 0.002185672252322039
0.000424642657948436 -0.000473502014921857 0.002232349128814065
0.000422765580306499 -0.000457043834138212 0.002226111787898112
0.000417124248703639 -0.000444541616345765 0.002209963182394919
0.000439712671363718 -0.000480152612940341 0.002285065786251595
0.000402730389237726 -0.000442972310458551 0.002185441082295685
0.000380418143638373 -0.000452587802339888 0.002158933699988438
0.000397169734809632 -0.000502210990819610 0.002261558372061766
0.000398042197286793 -0.000497739784874635 0.002219187491519037
0.000348004321225074 -0.000491978619949978 0.002147785029097789
0.000361949032320748 -0.000475019231984237 0.002147902883822868
0.000355163767611455 -0.000463962773674117 0.002122590549096267
0.000343480475216911 -0.000484902982868867 0.002130958399700839
0.000373822805971267 -0.000445633749131337 0.002137602166399229
0.000388038340036755 -0.000435852016720725 0.002163589891767104
0.000420617303991882 -0.000429311029509247 0.002196338861777838
0.000360065052675319 -0.000497726943928299 0.002160176541676201
0.000375549573745478 -0.000495650600078837 0.002181201815927491
0.000391504933999335 -0.000483148920919459 0.002200639607267209
0.000356859733192377 -0.000483598283600963 0.002146255751886983
0.000342360414111505 -0.000467352543745878 0.002118777902063886
0.000393882082461479 -0.000409209478373473 0.002106454446696711
0.000376415249124094 -0.000418855333838527 0.002097087745577036
0.000369339819422410 -0.000421741080045792 0.002109679713600471
0.000388392299328697 -0.000422573252508514 0.002114124741564718
0.000363566055166959 -0.000439361928781806 0.002109824655211843
0.000369938043510701 -0.000435997794296641 0.002121925309720077
0.000354236985608381 -0.000437619697949869 0.002095089710180085
0.000350568470366234 -0.000449290537445734 0.002105319009251678
0.000355419640011393 -0.000425226700918916 0.002084092387240668
0.000352314031967448 -0.000437539036500269 0.002085108886495978
0.000346562156218936 -0.000448503663877164 0.002094742914795726
0.000343245283505208 -0.000455610080994936 0.002103881467760815
0.000388651405888847 -0.000397616860001099 0.002096611561517536
0.000373867016620435 -0.000408329077975073 0.002088337575899637
0.000349643383436579 -0.000457264086436665 0.002112085160339294
0.000393493585432253 -0.000425173460038144 0.002147691507526938
0.000401165366408223 -0.000415229109520313 0.002130905881532464
0.000407225482977369 -0.000399242022248436 0.002121054393139027
0.000399549293842105 -0.000391802187560129 0.002112571564155826
0.000422687192765237 -0.000414848746405055 0.002154752331291290
0.000425494522714726 -0.000399662112335672 0.002139725448557748
0.000410127952376844 -0.000397156403519546 0.002130050906814175
0.000424089372340985 -0.000424641347484969 0.002169967961766753
0.000429096015036919 -0.000412139003086436 0.002149916029395112
0.000404276102762687 -0.000429917969702268 0.002174877901668492
0.000418097338461964 -0.000436205236212666 0.002194986723331821
0.000428238287452975 -0.000401588190778606 0.002138777417688878
0.000391390577000047 -0.000408419430868877 0.002104762406204252
0.000376764697819412 -0.000407715817670926 0.002088034710267267
0.000360008395074196 -0.000416144163735163 0.002075721828420300
0.000348660135938215 -0.000457720595405779 0.002106034384945648
0.000358574076136110 -0.000443941493927913 0.002095860784022780
0.000362212824743511 -0.000465303863601445 0.002130460754665755
0.000371892939915211 -0.000443632935311464 0.002115556682759203
0.000355924380101949 -0.000426461951603256 0.002079614830740090
0.000366833400208820 -0.000427813970227213 0.002093793933728524
0.000418412387330916 -0.000451830563421805 0.002209134916099018
0.000414589573959944 -0.000470373123773500 0.002209447972261546
0.000408925471558788 -0.000458752741482111 0.002194201003203602
0.000412775689330989 -0.000443413367240484 0.002168267633338971
0.000392669456001209 -0.000473621454572221 0.002182489876259364
0.000372130380481962 -0.000482180549686688 0.002168415096866284
0.000379832960684238 -0.000467976935116021 0.002145348517369792
0.000396379665048167 -0.000460383087350810 0.002159853878202639
0.000390180086413939 -0.000442495047315395 0.002131308279705197
0.000401573837846888 -0.000437058464048596 0.002141705767950660
0.000416467029505395 -0.000428269539752049 0.002147647596785420
0.000393187942840555 -0.000421727334383778 0.002121617971869342
0.000379974705069691 -0.000423787788123562 0.002108372766586500
0.000401644015541125 -0.000408912596924636 0.002119986065412008
0.000410379431041179 -0.000413072450852943 0.002132557562720781
0.000402308605835479 -0.000420629164386756 0.002131503623170568
0.000470874771771469 -0.000531996852961132 0.002342473061648463
0.000585179452876754 -0.000609147609979889 0.002112716851848969
0.000561407237142756 -0.000608501719574948 0.002136483904180924
0.000548891950810180 -0.000586951903737553 0.002097574565547840
0.000556781951803143 -0.000569006620492743 0.002075663184074631
0.000567725300479289 -0.000560184034623383 0.002052828855533385
0.000581630170907700 -0.000587871670606466 0.002041908394172022
0.000611136976255487 -0.000606382717183772 0.002029299913866800
0.000546190719864444 -0.000594119761300255 0.002120789023988713
0.000613135264609120 -0.000603200049473951 0.002065204749605383
0.000617098922231873 -0.000618820590996703 0.002032118449929337
0.000623729720870140 -0.000666313154411325 0.002040434063827367
0.000622230199018063 -0.000661075709079008 0.002066917574045716
0.000588839836883756 -0.000666403573171987 0.002033386706872827
0.000563516247886264 -0.000642203085881336 0.002051337606291655
0.000554412107016153 -0.000619494016130534 0.002054041188529483
0.000604584210528528 -0.000659792033768263 0.002118606689733268
0.000579532178254942 -0.000651456230926505 0.002127974594949057
0.000558008586904952 -0.000641159940719868 0.002107517055818954
0.000631383708048280 -0.000714990020477647 0.002105300917581118
0.000668095752121900 -0.000733784535198560 0.002073668555595706
0.000633782131688026 -0.000766142160390353 0.002023153680303736
0.000641236950968459 -0.000776900626130695 0.002026352037375088
0.000639289202887175 -0.000748974883467281 0.002019369352010890
0.000624042829694598 -0.000744240827386799 0.002018896643542190
0.000647141332488403 -0.000736978785800423 0.002003669118191367
0.000632111243199954 -0.000712936873548299 0.002019871185034122
0.000653050164460422 -0.000766581355140825 0.002026621336987198
0.000664722833265421 -0.000749707240225583 0.002018267299807907
0.000671232936770144 -0.000801436801407263 0.002041350148710394
0.000669773612305591 -0.000770340848218835 0.002036936394838052
0.000645244226755416 -0.000788898303903026 0.002039825926306190
0.000639307975960607 -0.000798458291996368 0.002043019356819402
0.000648618739151502 -0.000802519615712569 0.002050788569343404
0.000638135085006135 -0.000799212721762483 0.002041649148949853
0.000659528113655706 -0.000712738336687272 0.002034744141286565
0.000577995775478571 -0.000689054056919106 0.002034611211030654
0.000607845170471020 -0.000730011648318080 0.002041441260909311
0.000629104056062331 -0.000768454893016544 0.002048514979582435
0.000636765562113346 -0.000802760263645436 0.002053474654088277
0.000575545892797534 -0.000723904607124517 0.002045472660274187
0.000623376683335233 -0.000765141078396176 0.002062445537521133
0.000639661174947589 -0.000795464182093832 0.002065257435374815
0.000598804899344591 -0.000693769046054785 0.002070295385631966
0.000627874969933553 -0.000754934055807210 0.002075680160332968
0.000570745622225342 -0.000649957576383102 0.002060047335392073
0.000559407529175594 -0.000647998020747701 0.002063094735894554
0.000628499360388804 -0.000784278995437505 0.002071050518662095
0.000651420620828867 -0.000824194253920018 0.002058104841410290
0.000652363945236508 -0.000822982251493831 0.002050740469548347
0.000664587886758426 -0.000799673592725699 0.002067658341595835
0.000660017460028032 -0.000810260811155807 0.002036506052328139
0.000659859873678314 -0.000819896765772738 0.002054933997991619
0.000652611453738555 -0.000768426337802876 0.002092630366880083
0.000658386885304396 -0.000804267560974275 0.002075804005492404
0.000662140219419683 -0.000807370193711545 0.002048594651419009
0.000663395940642506 -0.000822464146421690 0.002052141816116777
0.000552243117304104 -0.000621178216812055 0.002067940201385407
0.000542006712487550 -0.000632901195354217 0.002087967536915764
0.000546427729945695 -0.000659109249311712 0.002088957331804378
0.000582070797473771 -0.000712698245901761 0.002081084992929996
0.000573283087296303 -0.000671452742281630 0.002105870846927444
0.000601889187754681 -0.000694063158706080 0.002116128201758338
0.000633039559450437 -0.000748260290621514 0.002099119762258971
0.000615659068560018 -0.000724209373973813 0.002089800769951994
0.000650930985244116 -0.000782346625287058 0.002087949852987584
0.000630405695209984 -0.000766892680152842 0.002092290581213296
0.000621478478227089 -0.000762744509181130 0.002077888125839201
0.000648438173413722 -0.000805372628116382 0.002076239527991061
0.000659297654530823 -0.000820039415721024 0.002064336389780503
0.000647325892990129 -0.000807623416511629 0.002065401909692238
0.000641360839878998 -0.000792660981797632 0.002072758453539017
0.000642924666329170 -0.000792220417264549 0.002080932742105600
0.000517283539422171 -0.000443669740167464 0.002340026046227236
0.000520485544145995 -0.000456269106106147 0.002345159122213366
0.000539495970214894 -0.000380063756747367 0.002318585378581083
0.000536120674943780 -0.000285024745747919 0.002295168358129451
0.000545572025044576 -0.000213963863576367 0.002296731761639148
0.000539271648405529 -0.000300791913679562 0.002280820414344187
0.000543711032799151 -0.000398438649687621 0.002315156449787433
0.000539584586354571 -0.000450521676108833 0.002328169637264514
0.000533224897817016 -0.000238177966875723 0.002242163758741659
-0.000261186377224039 0.000985271360928560 0.000338519514338190
-0.000253037953576340 0.000989986038847216 0.000370414804397590
-0.000251796782063714 0.000966176240884185 0.000366817792335675
-0.000243756652997201 0.000955185696696693 0.000354958060289181
-0.000229938678630852 0.000957639459024763 0.000336305707331039
-0.000216341001759314 0.000951895822209245 0.000332971524737439
-0.000234260675463865 0.000985448712326626 0.000362748530751819
-0.000251253933900512 0.000990616006602840 0.000338348385766466
-0.000146731442768078 0.000931870495273703 0.000422050277001086
-0.000166770349512049 0.000947259050327944 0.000409775899463546
-0.000152375998897311 0.000927674103381741 0.000394247081105833
-0.000192816956177097 0.000941337758176019 0.000335418911107685
-0.000172639965241128 0.000936590146190703 0.000369256051984739
-0.000256958068525824 0.000976110040541615 0.000400656998807935
-0.000260949185533847 0.000975634333473495 0.000401716960165392
-0.000254144199335405 0.000985500552488634 0.000386550386652082
-0.000207599319672233 0.000945471429096789 0.000330805680636355
-0.000259665647633392 0.000971853689523393 0.000395230327263606
-0.000251552476565188 0.000970825356273617 0.000385999624760952
-0.000206818537635180 0.000970616430793204 0.000369398186170185
-0.000238197167560493 0.000961594934275002 0.000338522720491160
-0.000230236328994109 0.000961464555136658 0.000334106846963865
-0.000231106637780602 0.000964755780347809 0.000349296022415382
-0.000250550829734491 0.000974640931750821 0.000322988874474551
-0.000213154406807050 0.000953038942963719 0.000342715019408125
-0.000194986032678302 0.000951167467878110 0.000348257774258621
-0.000250150924081348 0.000961633136183518 0.000350458538760752
-0.000223094735853049 0.000956111138686566 0.000341306564270710
-0.000255083504748691 0.000973916366393963 0.000328196515073482
-0.000193367344222970 0.000951802219902539 0.000367885024240420
-0.000213699671472223 0.000957365891635001 0.000358513815295421
-0.000242256271801059 0.000994540334913184 0.000390995576949303
-0.000244018374121667 0.000987337296345070 0.000388731643205957
0.000338728996588903 -0.000331155650244181 0.001012738811408543
0.000263753100424916 -0.000681829707585730 0.001123712518752799
-0.000246645104275880 0.000984581702757004 0.000350724921663545
-0.000237561170504287 0.000982283386343154 0.000377986763391186
-0.000240955033200118 0.000979728603358906 0.000364794483366574
-0.000243130726495511 0.000985775584989426 0.000374205206366456
-0.000243779136032896 0.000988174977081309 0.000386709968419882
0.001487547766026010 0.001042529509661401 0.002001954909144408
0.001535164483844184 0.000765909731450931 0.002079217516436578
0.001233560672587558 0.001324139983548131 0.001284168551308760
0.001115727503316653 0.001120048318965702 0.000884161982775380
0.000421347090586868 0.000658936222017987 -0.001842153946112241
0.000046935001725096 -0.001796347279917233 0.000406517223367524
0.000131179027614346 -0.001832861418720836 0.000420218276632712
-0.000065680510594772 -0.001858077513911991 0.000962000580984754
-0.000058309418075692 -0.001876819751969023 0.000818242320832073
0.000739182950845619 -0.000931203896391739 -0.000253257155047588
0.000626029319243989 -0.000908630291005620 -0.000388505326485393
0.000288297551001400 -0.000447530572470230 -0.001354070826036360
0.000257376038878933 -0.000300906557642129 -0.001594646721069348
0.000528690245554893 -0.000654188259464918 -0.000705291382587833
0.000033170622562377 -0.001853518677106037 0.000377495606763968
-0.000030975674474886 -0.001801749875675419 0.000536358147657875
-0.000010244735902732 -0.001857003258477544 0.000447440290802140
0.000055992326451912 -0.001904752608980913 0.000395997534238868
-0.000074907898224871 -0.001670864580920895 0.000697509547508662
-0.000071048951143737 -0.001843431885900386 0.001090153143497380
0.000801644203466686 -0.001182657214700028 0.000149322566464439
0.000691368947853854 -0.001315569145974927 0.000180060365960871
0.000138871781696513 -0.001740309364768131 0.000521182480960119
-0.000122184530152523 -0.001875896870639065 0.000871516735468942
-0.000224120515322873 -0.002175392964788359 0.001392447691342715
-0.000219430778366950 -0.002042424957864946 0.001180213242420314
0.000262025327036081 -0.000364142269916388 -0.001327293783184257
0.000077078892455004 -0.000522549636700044 -0.001332205000405427
0.001013219505903687 -0.001050325814327559 0.000082293974016596
0.000428836379180833 0.000248324279253107 -0.001941536929473667
-0.000061659620466178 -0.002246951821372722 0.001621518970792252
-0.000020777323238154 -0.002152934450502999 0.001617013323538485
0.000465158065048660 -0.001552429087057845 0.000310863941865403
0.000278371221061790 -0.000761384400448754 0.002037542248771384
0.000286190579538952 -0.000873093824887753 0.002351405504451326
0.000412906772685604 -0.000964939357172709 0.002425949902119630
0.000420461829426152 -0.000876170932089229 0.002087067223014647
0.000586870471772026 -0.000914834943099946 0.002550364180876612
0.000785908720310105 -0.000796786883877230 0.002732663510743022
0.000910561680199637 -0.000699647996268562 0.002891893282634446
0.000976872495878719 -0.000834172096355466 0.002918751427863819
0.000992141686078481 -0.000745083292766387 0.002994089443048084
0.000869143272729912 -0.000983705065120364 0.002656231814684891
0.000928806858666812 -0.000917277278615616 0.002776925918780784
0.000931883134872104 -0.001096201103981498 0.002629058031836961
0.001104402542454113 -0.001244068464753440 0.002562765625871887
0.001258618423360489 -0.001467619559364502 0.002362082217405892
0.001025621209095930 -0.001308842124914107 0.002282756411077045
0.001236014971622053 -0.001367638934567092 0.002574463120553644
0.001199214086076464 -0.001158766375882577 0.002746920949071971
0.001128358578260547 -0.001012596305700147 0.002892334014943199
0.000070791058669083 -0.001058768691100019 0.002008568320168586
-0.000060352461186936 -0.001017899915345031 0.001474958234041876
0.000423251287072490 -0.000089642414010953 0.000728768100340301
0.001292048419412626 -0.000340993616878968 0.001521397202482712
0.000786483796201303 -0.000084787742035910 0.002319826817530833
0.000753890170269911 -0.000787637090639603 0.001824506475608328
0.000632458530725122 -0.000934729846647136 0.001722324215076133
0.000286813520263454 -0.001160005752377880 0.001863580556590122
0.000339970530415718 -0.000987872879856008 0.001545511456861690
0.001107359131036674 -0.000388814473585569 0.001307708542247188
0.001077295369897719 -0.000277653089090200 0.001318519309717862
0.001104488463310540 -0.000414101095910286 0.001413310258433824
0.000986611645215380 -0.000655734329596704 0.001794539447031386
0.000632877810819436 -0.001115144761047574 0.000031222979970537
0.000737653118998003 -0.001123479246098341 0.002469245451253169
0.001015764831150631 -0.000692281157481552 0.001998276107230764
0.001126641605324525 -0.000411324013442080 0.001558560214801223
0.001084583583950874 -0.000278029653675234 0.001429397617154040
0.000933589261539000 -0.000294420658859123 0.001430813897958700
0.000811117541025832 -0.000265717450634765 0.001428663904517044
0.000938573692705840 0.000396863757662343 0.000910474925866436
0.001020429874346180 0.000439466308770832 0.000866637598360866
0.001049005756570465 0.000348875218480909 0.001196022786523041
0.001128739694400060 0.000542573118717111 0.001242762045839401
0.001040180750217296 0.000551097560179381 0.001013282537853805
0.001016575335895584 0.001094996135739383 0.000835712902577154
0.001064240718366874 0.000937535060530709 0.000699563970906023
0.001093351815300864 0.000748287304213673 0.000478449532026362
0.001087743261061201 0.000440701713364050 0.000341226787372180
0.001105497083321489 0.000077916849834441 0.000422699009941259
0.001103625885899893 -0.000220415862664713 0.000559625458968200
0.001077573489506723 -0.000404768666507105 0.000689702898215465
0.000824325066788814 -0.000360695203289577 0.001260697253126619
0.000701573468954024 -0.000293085709864507 0.001229496841577389
0.000490885967808899 -0.000368259071533031 0.001293767824612554
0.000495045256050043 -0.000551084699752374 0.001284123253265528
0.000381546713264400 -0.001587351004651185 0.000778707703420253
0.000517459674326677 -0.001123361725596716 0.000914437653399843
0.000165568726540202 -0.001868130955768930 0.000970250289752635
0.001348252922763433 -0.002383259669393165 -0.001009595996109087
0.000943922437735071 -0.002337593524651172 -0.000534891306146874
0.001123997214303875 -0.002209184952905740 -0.000760428786575649
0.001578876423146508 -0.002198428348083022 -0.001149617484609873
0.000046395840693076 -0.001740294808510334 0.000827624452088691
0.000182880670905554 -0.001908829199202298 0.000759643889952755
0.002666411871255857 -0.001144140964197491 -0.000967620791973855
0.002190821371471839 -0.001548257179644926 -0.001120054897235713
0.001738133709618596 -0.001790479549537771 -0.001081590503258197
0.001403599339570454 -0.002000861962978101 -0.000950533080211344
0.002959688643635864 -0.000809319102048630 -0.000550235694878079
0.001643056940001045 0.000909724449637347 0.000598116145693017
0.001938251097675623 0.000624325995407722 0.000321656800030518
0.000575869485660485 0.001157546751648752 0.000949226666093792
0.000973492489044765 0.001062220088988872 0.000914699633492665
0.003065470392020593 -0.000478029877703411 -0.000187733864115030
0.001325384863195324 0.001024136714331608 0.000852289237247323
0.002385260006425663 0.000264917352371587 0.000151607111238115
0.002842311314395051 -0.000135182279063287 0.000006969927468823
0.000499758301628069 -0.002137411500449726 0.000051768570492836
0.000435369744508952 -0.002035591287632341 0.000171856490954215
0.000213516511657323 -0.002017306823491952 0.000762764765607447
0.000039917875029046 -0.001734742703127764 0.001686758695906741
0.000110155278597427 -0.001747767223028489 0.001706017965943642
0.000193346202246783 -0.001662605753930835 0.001699337688159319
0.000509173697003184 -0.001186960989694260 0.001683442977561977
0.000724038410948577 -0.000789376239869793 0.001450533458742814
0.000542824813394336 -0.001107555666385397 0.001415352122552455
0.000358585776127065 -0.001452979666102754 0.001633026321554954
0.000731318247623235 -0.000213737948123979 0.001265177735265647
0.000648141536959267 -0.000039773199474228 0.001145484905005725
0.000652310032348779 -0.000164879406735241 0.001239244351951370
0.000741836204188905 -0.000310261012312130 0.001297067232482238
0.000609179200759177 -0.000087133115087800 0.001037493961973091
0.000687671283086140 -0.000040775798388071 0.000913670254155081
0.000788800912789118 0.000026480462302188 0.000886319910532304
0.000720065633781506 0.000048254625642324 0.001035228055394707
0.000817517305363783 0.000320204218801105 0.000836577066276770
0.000821570220354868 0.000264642396367573 0.000698324813435291
0.000694053742213192 -0.000080523234173143 0.001263571492161051
0.000848066597532862 -0.000239562204588275 0.001214073746645875
0.000247636429113441 -0.001600856014997076 0.002262246878649160
0.000060365175021816 -0.001816645965399771 0.002250152010152718
0.001224180004527542 -0.001443826282916195 0.001923368779041595
0.001075512345045672 -0.001305067896615516 0.001475505607758230
0.000904953951985513 -0.001168610935843361 0.001160719660101230
0.000871393046032779 -0.001105469583385465 0.001010077520226344
0.000782242479390401 -0.001065089353802879 0.000969634663556190
0.000657241231192705 -0.000987522892234470 0.000963274212001488
0.000522655454217551 -0.000930778724635885 0.001009625107914714
0.000519820972813484 -0.000731690761320924 0.001178146570687173
0.000482686069314431 -0.000862630769870559 0.001090802953433034
0.000497978610917350 -0.000622847319656249 0.001209131646204387
0.000499763115202712 -0.000905394250441794 0.001140804142948470
0.000595650745640216 -0.000860708977242606 0.001167331613564463
0.000774345171388812 -0.000631754654982833 0.001203481222392601
0.000854271728973834 -0.000425199364158825 0.001178792859435857
0.000719765044503042 -0.000905423256101634 0.001652027485682981
0.000861951842877701 -0.000565130973463259 0.001399669801870047
0.000779062761843203 -0.001012178572941958 0.001756442198906818
0.000976225083572148 -0.000815074706001426 0.001648903852100039
0.000334907511071415 -0.001457651785023746 0.001802094914586064
0.000572089214587473 -0.001214282776523629 0.001804758385792539
0.000823673181095289 -0.000378912731056399 0.001127460506540525
0.000658567107493202 -0.000442597463690867 0.001198090113127697
0.000974481788228717 -0.000318874501676146 0.000692677455437955
0.001035416611088625 -0.000246869866845280 0.000604279761517352
0.001011945577130619 -0.000371488336380698 0.000755502180804847
0.000983265511321845 -0.000388814271122033 0.000811637610578613
0.001033954157371913 -0.000017772433975942 0.000473622005200227
0.001022265384425389 0.000161107579178427 0.000513954721895478
0.001038529474202285 0.000264818195841559 0.000418671061778501
0.000988849417914615 -0.000163913986936648 0.000581468403452564
0.001036042923850370 0.000542597580895197 0.000469208451280874
0.001030731017145039 0.000370442245798795 0.000540307162108168
0.001036759353945205 0.000729098915790332 0.000599923570445643
0.001036260305151167 0.000577738673410063 0.000617143114556016
0.001028239274415463 0.000742667018132523 0.000684026141389306
0.001018691908170359 0.000872673134954627 0.000714304259552451
0.000903542548525329 0.000738928445626345 0.000873681304114715
0.000960123659530010 0.000781621249948851 0.000795353629790230
0.000994489097622740 0.000776901894408646 0.000739909022922195
0.000774508940195246 -0.000110714203869833 0.001024134093181257
0.000857817246746838 -0.000213929668928604 0.000885630764141653
0.000932598218372713 -0.000235945200139223 0.000735499113958810
0.000983164900434707 0.000036258238367438 0.000654615561014416
0.000894026531287578 0.000022386937495252 0.000798627625395955
0.000778113763602791 0.000075493678598888 0.000893316664205756
0.000090474754012317 -0.001578191557915505 0.001815758833170489
0.000188038076527822 -0.001523429733591406 0.001803796788716934
0.000673306085704478 0.000047959999290807 0.000916409988897385
0.000753305929943064 0.000134754663170246 0.000802270812757560
0.000837414241397800 0.000199543848062603 0.000751448869905110
0.000746052560961060 0.000195317811593731 0.000888860348234453
0.000784055298097991 0.000254583406914844 0.000756044301584354
0.000753489694957773 0.000177629118995963 0.000818577912576250
0.000706049645413049 0.000054399787694394 0.001018494758567001
0.000370419937085617 -0.001431910657109423 0.001970012104616857
-0.000051286054218811 -0.001663052667835185 0.001701161077088638
0.001291675811298661 0.000107762459489628 0.002360095406669633
0.001324428810669732 0.000350384565729083 0.002171624819791048
0.001355275677451448 0.000525183498222608 0.001941836218702537
0.001282319834920547 0.000605962651504502 0.001556878772124697
0.000531746424767170 -0.000250486803941248 0.000887626112719438
0.001779250627397788 -0.000947432134046223 0.001461700647206676
-0.000106169347686533 -0.002048250093663071 0.000918392100827912
-0.000141209062331931 -0.001813131595600555 0.001132498083983785
-0.000009310092701477 -0.002264164254730258 0.001127964035859993
0.000004890986453294 -0.002430092078004666 0.000915390312104925
0.000019030931090420 -0.001810135952746434 0.000426340251703737
-0.000067734477311123 -0.001510569647499176 0.000522348998738105
-0.000092050790797483 -0.001536006263289011 0.000459357914781601
-0.000111570373866230 -0.001408456087642632 0.000439881100807180
-0.000107351523392330 -0.001569115818154873 0.001076569265421564
0.000008352867544765 -0.001442938395236853 0.000688214409525327
-0.000013378442695802 -0.001637403804903231 0.000932261909562097
-0.000011708419561663 -0.002286739300716910 0.001212996258373976
-0.000080411786482513 -0.001679159789459492 0.001474960657238029
-0.000152625716822594 -0.001666851123105589 0.001640813171407868
-0.000128033673933022 -0.001817545821384304 0.002157290939052342
-0.000142168795553678 -0.001674384935907441 0.002416976958348207
0.001088101304372816 -0.000776615996972342 0.003396769880030875
0.001087727834901054 -0.000695508666779772 0.003250616245408277
0.000946717185884980 -0.000728072716741505 0.003199057593959044
0.000898650735700273 -0.000801960028280826 0.003431870978571298
0.001320530893751734 -0.000878996165223244 0.003248874379303983
0.001215332972142053 -0.000818121581777781 0.003166012267082764
0.001155574421534956 -0.000732173277959583 0.003246203519832263
0.001225923206800835 -0.000789569554024686 0.003370160365841392
0.001179521616154028 -0.000908461945581141 0.002995781298065480
0.001376486505115663 -0.000979365578449224 0.003085981175493299
0.001053942324574494 -0.000930803095189227 0.003418222691581558
0.001184748698009282 -0.000995482072371454 0.003309153554792680
0.000854267500349880 -0.000904959120612738 0.003511064550782266
0.001408857069000782 -0.001144006510055812 0.003005567327578500
0.001307081354661070 -0.001056830600292960 0.003158828388804648
-0.000077869368979480 0.000817848934129237 0.000157477464550015
-0.000130151409519544 0.000824425463535621 0.000309067123343262
-0.000288467419155748 0.000948856980230117 0.000141820642705450
-0.000272631959959268 0.000906035058906705 0.000252002134872895
-0.000055484901654344 0.000673734019908525 -0.000270907789843239
-0.000155920551428426 0.000651025430531065 -0.000381535667410632
-0.000217786625578083 0.000985638870979248 0.000172063248452953
-0.000187609540426872 0.000883090135252561 0.000286443974352996
-0.000277613023455195 0.000849672768950917 0.000354420980755503
-0.000278004020817744 0.000868191528462087 0.000323910443366320
-0.000295770569957671 0.000893855697525598 0.000267717015359913
-0.000288027807397651 0.000899683697276078 0.000285300689621297
-0.000149631983943343 0.000666788328202121 -0.000415536533485654
0.000006705857154159 0.000734608336813259 -0.000099100097152699
0.000044320383766654 0.000594919927975920 -0.000320048795325436
0.000173061804406008 0.000509907669654958 -0.000202409635243575
0.000224691778089082 0.000390015841868941 -0.000073787435488016
0.000355502222254225 0.000297158736102029 0.000146975059402548
0.000086727017940905 -0.000975375642390060 0.002278601733013641
0.000209465995634605 -0.000892934286579544 0.001629582563852200
0.000184454302311542 -0.000641955648677318 0.002125251345491326
0.000222968552246990 -0.000938012687808717 0.001292934691220342
0.000426674937825623 0.000144874265891470 0.000398388135986830
-0.000073006266552846 0.000655647191788479 -0.000378001117023044
-0.000273402786111979 0.000980847741131310 0.000107364521884748
-0.000241607510541398 0.000988640628168016 0.000139478724133387
-0.000287845342312714 0.000872587789105911 0.000306970819298575
-0.000290204011076167 0.000882429079984738 0.000295602303514408
0.000234458857719320 -0.000368969989673977 0.000999815694079670
0.000119470613281422 -0.000783426935444283 0.001047064570584383
0.000114526228586182 -0.000835408933867003 0.002267878310044725
-0.000065678164419311 -0.000974416381630359 0.001853428490971347
-0.000067757002645781 -0.000912157662246878 0.001300757502101871
0.000379054548536134 -0.000075174631546685 0.000651359789676006
0.000049386908947142 -0.000640464643155160 -0.000127408169022285
0.004767350694061922 -0.002887029394609487 -0.003337214821765076
0.004272610210540930 -0.003325320075568282 -0.003753949090404942
0.003785998310284627 -0.003321989080921876 -0.003973437000140976
0.004214994936754209 -0.003024912621845342 -0.003718088644507439
0.004264476099075756 -0.002351566904834047 -0.002973327457261570
0.003885742525967575 -0.002203724831276197 -0.002469007760528545
0.003658344374945453 -0.001898130926432099 -0.002150552536399005
0.003275925226752598 -0.003551136381379605 -0.004134340397214285
0.002329311541590712 -0.003507760334829973 -0.004160827799529416
0.002657928929220140 -0.003725970509808462 -0.004319859105462910
0.003155026689647639 -0.002279377902858148 -0.002400829141473490
0.003479466860523190 -0.002529440669269830 -0.002844447384475660
0.003733934221055642 -0.003070704591396849 -0.003891115852764758
0.003744382520849624 -0.002822953832023631 -0.003633800931388652
0.004343407988812097 -0.002653968248032426 -0.003393198065011742
0.002914604612038041 -0.003408521177251589 -0.004062568106329404
0.003427684438946210 -0.003237052228987928 -0.004024022008458885
0.000850924854132973 -0.002634705998149760 -0.000785515409582592
0.001056046967567512 -0.002728168645471121 -0.001455388983323370
0.000651063995004971 -0.002728700639867129 -0.001386526944768331
0.001853799614896498 -0.001859121594871954 -0.001222766924798966
0.001947113077910219 -0.002263556080795941 -0.001613774060141230
0.000316872806872501 -0.004016140726426171 -0.004898849466328323
0.003157573248607146 -0.003092336818010284 -0.003807167039004194
0.002071185313471606 -0.003280383848870051 -0.004021749429815271
0.002651319750941575 -0.003260117145610187 -0.003874897919819760
0.001643052311622245 -0.002624746070547777 -0.002736915934316963
0.002154373676902973 -0.002538937909006977 -0.002683852006271044
0.002270917118136300 -0.002720125565587588 -0.003213968128014456
0.001735427842317319 -0.002771581341817139 -0.003252129126141911
0.002673282173927864 -0.002475692412383323 -0.002596531443410599
0.002345000358328400 -0.002391005307328499 -0.002103707674817405
0.001543950634447524 -0.002611676830149175 -0.002152597337040667
0.001936594663816833 -0.002520347592507568 -0.002134419606574195
0.001653434935293908 -0.002405042565053577 -0.001582270922520898
0.002910457209061420 -0.002696696632169532 -0.003111063943152799
0.001787232539939094 -0.003069429169570569 -0.003729839068473388
0.001185496025371302 -0.003032156128684869 -0.003770075635911550
0.000669258483098312 -0.003076943236812967 -0.003796717310041691
0.000028383952321838 -0.003172666581508919 -0.004004287454618614
-0.000127277955692858 -0.002875965984864505 -0.003309074254455493
0.001355141492587201 -0.002570168350996858 -0.001471916150065487
0.000785817715109836 -0.002306364955002663 -0.000349608100329418
0.001151622576842900 -0.002527754242406643 -0.000918039879249012
0.000095174653652742 -0.001918773701644237 0.000602484682669986
0.002515977369146994 -0.001319551124876743 -0.001003353026636929
0.000966170652479588 -0.001551752150372397 -0.003050960938931523
0.000997860905319865 -0.001040947175286297 -0.002585957339002447
0.004632728848662337 -0.000421835746622829 -0.000613402831272635
0.005267820051002062 -0.001915093793037024 -0.002147482476762624
0.004940117148404120 -0.002397394806159170 -0.002931184430365869
0.001025716114539076 -0.000338072315280957 -0.001744843295020158
0.001533286681558035 -0.000016077729873913 -0.001451859639482514
0.004290377072948063 -0.000149121377520590 -0.000419724480429059
0.003343963059933800 0.000358557352243185 -0.000437536011626735
0.000962009921849200 -0.000645098486232222 -0.002189613398843115
0.003626476388973123 -0.002700252425915737 -0.003240282744049268
0.002996685625107090 -0.002911242453434175 -0.003506486292363829
0.002416439872756752 -0.002994634628334348 -0.003602911419353723
0.001406861390997671 -0.003262891148193714 -0.004056587869989041
0.000766591719538093 -0.003255399651262608 -0.004075063747444005
0.000193977540838231 -0.003441945945664849 -0.004327561274531347
0.001492080752127949 0.001347563130821930 -0.001643578450710591
0.001090550628662959 0.001357872450633328 -0.001423523525094573
0.001285392653012327 0.001153916947181096 -0.001266197605671824
0.000695009261997170 0.001018055677745964 -0.000729672397599081
0.000815722349233375 0.001435465573087776 -0.001500054014772902
0.001172204912004759 0.001645473014968276 -0.001990555379662512
0.000849736075295389 0.001698762281297472 -0.002058541284965778
0.000799405336524749 0.001812124816678266 -0.002459355952312757
0.002224848957001848 0.000405946458076205 0.000972657767670262
0.002600682311152011 0.000306737673891054 0.000606583043232193
0.000762090826665859 0.000722909401414361 0.001591437511559948
0.001312308131728913 0.000583414050338158 0.001504221077100679
0.003575813585313772 -0.000510500333538461 -0.000307728283848009
0.001795844462738185 0.000462738210715211 0.001269794207128771
0.003005818979408027 0.000148804075686757 0.000357501977423414
0.003332745469709470 -0.000216163253670878 0.000026572269729146
-0.000195541041268920 -0.002674953346582471 -0.001884962771216752
-0.000028746086721965 -0.002485600398687439 -0.001129176245718260
0.000212803265128406 0.000821669478371623 0.001661755570977409
-0.000175996168503878 0.000835878513588973 0.000335319410944090
-0.000048653277993371 0.000797539811948106 0.000158772711956554
-0.000415303446716649 0.001508779019134320 0.000704826748331794
0.000161827693990634 0.000463892747609203 0.001236354941076969
-0.000268131686468121 0.000910252840649494 0.000661150459143999
-0.000273804602941837 0.000918144153378035 0.000260455672020492
-0.000284589094024412 0.000839978117164739 0.000362519413738942
0.000313613852745140 0.000401379258609235 -0.000010956827457814
0.000395348723530937 0.000308736614217440 0.000172858629423333
0.000657258606148663 -0.001698671991390250 -0.002838654208416980
0.000400959354102530 0.000133043163413601 0.000316725294103468
0.000703094021920905 -0.002033349353051354 -0.003271930979498789
-0.000029883708502525 -0.001805601510961948 0.001248775786361118
0.000616699244173561 0.001559895292147612 -0.004518659100859948
0.000771728737786444 0.001486957791144243 -0.004844283531308862
0.000846191344432899 0.001813973758481104 -0.004735273447393951
0.000766525093431889 0.001918405151503384 -0.004457447189453278
0.001468141515963362 0.001498349636550727 -0.005294343704238516
0.001182023446448410 0.001479349059643198 -0.005158597206212087
0.001812164406161931 0.001580393958696118 -0.005232814466308969
0.002063682176993528 0.001633994007698921 -0.005126193529902925
0.001918853794187715 0.001825523692664111 -0.005021079043274235
0.001677535636406971 0.001800153872072094 -0.005016384902700117
0.002058992993066721 0.001629135182444676 -0.004954711585243336
0.001940104454208425 0.001825948859938671 -0.004655986408142724
0.002065497669317804 0.001536189804517458 -0.004677704913613779
0.002234057518799312 0.001365256335043694 -0.004370729211913822
0.002264028536328442 0.001692920772325243 -0.004329828672000876
0.002078713151556514 0.001504604925928488 -0.004271820887945177
0.002258178869206893 0.001833108104430493 -0.004147713252804259
0.001808830865511158 0.001678660087278269 -0.004126084836803477
0.000704555037523333 0.001698854255312845 -0.004227074608397127
0.000858017890906886 0.002059802547714839 -0.004202977958255286
0.001445802596373858 0.001756239801294477 -0.005023187346693828
0.001112397338622946 0.001743730101245411 -0.004972338772004259
0.000935056911711244 0.001758602158120012 -0.004925433395718393
0.000964840446688417 0.001479430560329971 -0.005035180278540280
0.000992678785637529 0.002130242374131064 -0.004677404300562667
0.000965121534948755 0.002254131978606960 -0.004508132944417783
0.001378689240980071 0.001979569752277049 -0.004946337659716077
0.000997931950013274 0.001977555080292746 -0.004930467064654594
0.001937172392246326 0.001987987660548752 -0.005066182355652862
0.001664345302760845 0.001976518543018205 -0.004967156680099512
0.001936735406474357 0.002016734190136964 -0.004671060658021273
0.001826694712094161 0.001996228739977575 -0.004831170991626175
0.001940531090136597 0.001826496310186276 -0.004843850041491638
0.002489196528697457 0.002049085820673557 -0.004300823815177566
0.002195302236799628 0.002124298261408193 -0.004275346127305974
0.001243034038949956 0.002291027057688944 -0.004378874892414212
0.001023693482506711 0.002040030514402049 -0.004788599549231539
0.001727532466950332 0.002604101439438326 -0.005110949072879044
0.001680215350637307 0.002552600682947167 -0.005041311273776840
0.001665826458110791 0.002490996345474202 -0.005042066662407923
0.001749507328928719 0.002512790595803496 -0.005079500576224323
0.001591424010742489 0.002233701464913491 -0.005403450966004242
0.001364105884063851 0.002050497002085219 -0.005592756481115772
0.001512864475188976 0.001967185245010811 -0.005511898413680524
0.001631416139932317 0.002159154572443235 -0.005275550432840589
0.001847874866029775 0.002448445101237473 -0.005350872068629184
0.001864742988212116 0.002527872539229443 -0.005312675313339926
0.001862669105722963 0.002583250968265616 -0.005339673144438620
0.001785568685467434 0.002540155546531651 -0.005381181084992813
0.001807032773522694 0.002779611360488488 -0.004884447145966325
0.001849617957652034 0.002800511468755360 -0.004914334106515286
0.001839686364760017 0.002831345051050332 -0.004921355249371434
0.001822843978033829 0.002804257695753925 -0.004879497660058468
0.001740697644473350 0.002636319130161251 -0.004915798949153633
0.001815495239823074 0.002664708322635720 -0.004962707698955847
