VERSION .7
FIELDS x y z
SIZE 4 4 4
TYPE F F F
COUNT 1 1 1
WIDTH 749
HEIGHT 1
VIEWPOINT 0 0 0 1 0 0 0
POINTS 749
DATA ascii
0.757150420118691714 0.202440651475399302 -0.027261602157039991
0.761561802046002878 0.201660181705273306 -0.018406804756980717
0.779622481055824768 0.203455585235101877 -0.021299998288881315
0.778371018109984547 0.205444292850863491 -0.015297486637713825
0.770148849100667832 0.203469602034256514 -0.016827404424399343
0.768128201089129381 0.203012541137926716 -0.026232505821605002
0.760315516567662497 0.204811191360111472 -0.045576423182997490
0.764827366148709387 0.204278025724154766 -0.038601259172598108
0.754150228901945607 0.204599399098745027 -0.038559454363238890
0.749973597998604524 0.205028624312708546 -0.045705892981224322
0.746190000562060973 0.202524763461218393 -0.057000675241452047
0.745730569386154563 0.200519726328460990 -0.062852105224238272
0.754358519533390726 0.201058245823715925 -0.063958516972418417
0.756137619734540523 0.202998528366008596 -0.057496294577944265
0.776662631813850535 0.204656328777385932 -0.052658260701638968
0.775135024797055872 0.204364804501896896 -0.058085811901958342
0.784078997620061391 0.207214343942300233 -0.058527423310084321
0.786016431117408487 0.207028822849061961 -0.053412178131257301
0.686049477452624901 0.216385323032663140 -0.069125429979102204
0.686925697892373233 0.226084566629605244 -0.068768428708315982
0.744251425314575443 0.220935923335346340 -0.078077472222167793
0.753232069368836354 0.219522617420102845 -0.081572447847002308
0.748837972295541054 0.212176025623357162 -0.087430085943108360
0.739593627379201868 0.213684852561409594 -0.083860920804599254
0.704126734197641602 0.233470393398458237 -0.062801971391102482
0.696651549308760720 0.234093862854611173 -0.063083527700169603
0.824514755909807606 0.223821407709450471 -0.017318615612898634
0.818447613984561451 0.225083101837448118 -0.017907632170343350
0.724807609547336806 0.211932595582247613 0.008479609052264867
0.713622322309424351 0.214502645758944122 0.000504262085417939
0.704182673810828996 0.216643237540712769 -0.005777662218868253
0.697013127298974355 0.218473854227151959 -0.009657752748425627
0.690182233588006011 0.220315673768697123 -0.011188694205837377
0.773165640848434643 0.203428245543228636 -0.031045376229293771
0.751295267943457579 0.203726434038720677 -0.034520092004986389
0.739538248258736264 0.203982040521974772 -0.046155502522628754
0.733467984865753930 0.196759519802696847 -0.073789390255016712
0.736358004623919649 0.197683584819323799 -0.066777473334282120
0.729305213635704108 0.196717676039128320 -0.064095985135905420
0.725347622500158162 0.196630168348710027 -0.073450321686560599
0.738264172739898417 0.204996262429812559 -0.084794326262995337
0.747517736959745327 0.204158171524193799 -0.087047550728026696
0.748884754705618660 0.199223352619905453 -0.082443109106834195
0.740285252800119364 0.199248707193114327 -0.080682520135858499
0.750142784720686073 0.213246650508601754 0.010614919213622157
0.742510973927083096 0.218623864176645560 0.003568932754005718
0.698812572148431621 0.206960720691592215 -0.071704463376469546
0.691920771252068190 0.207399939184262722 -0.068167775838101199
0.685546595037756612 0.208657751048952234 -0.065170275764754315
0.717949682741959028 0.198740892112425377 -0.044576705370848492
0.719669500950039343 0.198357272536236473 -0.040469976131830614
0.706379576626336547 0.194123750880918655 -0.035316979032607963
0.705160527839582496 0.195666544120802782 -0.041077128617764219
0.727466660789590880 0.192488937385539183 -0.024473111187810394
0.733726568268868506 0.190803885544414326 -0.014166509058355630
0.714979984669764423 0.189127257293591700 -0.019605758355759281
0.694302313212476152 0.197889391442438223 -0.035233934104301610
0.685926177580618024 0.201265847037754048 -0.032747930266912632
0.686065958812724364 0.200818255844872146 -0.041521624533707870
0.685867645047704144 0.201323091157472434 -0.050506479475678441
0.685538108855897166 0.203630766699341798 -0.059193680802988154
0.676358140880343517 0.202644728160807364 -0.031752613908035111
0.676715763685059812 0.201503813509899182 -0.040538880622929284
0.676895405402222261 0.202240038695096408 -0.049828823134652284
0.677048049549121234 0.204982505337172188 -0.057929966620167986
0.678802822646601856 0.237120666029004890 -0.063473544469227788
0.688523087809619905 0.235478069900017545 -0.063351492009988464
0.677839137066502784 0.226757055339012997 -0.067902063686178959
0.678712108438911499 0.212477566930421691 -0.015454641867527687
0.676988827306475138 0.206530042544363940 -0.023395049992212820
0.686507381111953752 0.203757324413159635 -0.023493592156891403
0.680975018251666397 0.222275699822496925 -0.012132834559521837
0.737317002008726741 0.191154571127264139 0.007007463381152637
0.743676747738473698 0.193582952620959564 0.001998470368326517
0.748351121888833681 0.194033330210966443 0.007664202366369725
0.743433255893493405 0.192073000597475063 0.012480425427034574
0.771268352694614134 0.209061863961709893 -0.010917670117020672
0.778708867519168901 0.210952230789826611 -0.011247922798133213
0.779421749574851996 0.218067776579964900 -0.010665678689431187
0.709100485081509802 0.197638112698458074 -0.069370222390324046
0.713542363789809841 0.195685855481919746 -0.058937347717698277
0.782014743982526017 0.203929715358343533 -0.026780195821637254
0.809917385720122729 0.223245689939704700 -0.013727675678674750
0.797608704160576609 0.223904479627827585 -0.014116149818238959
0.796210934776325097 0.218377870243970040 -0.011527884748638815
0.808968896106232349 0.218534488827477391 -0.011117150736059379
0.791136879808646110 0.208443740619235818 -0.030282317908731111
0.799005956559222574 0.210651332408930275 -0.028686695382766206
0.796599004793624221 0.206926397033092652 -0.024372412541945294
0.788669192986762080 0.205784903178359568 -0.025104231109574479
0.772720684107056077 0.203056007844058112 -0.064476914736861304
0.780137717567126798 0.205272878495333239 -0.064730815466262831
0.779935234410523592 0.227494569835975213 -0.033354697096430727
0.767790391582152343 0.231644946065315271 -0.022086199917777365
0.779246730119985687 0.229858105280306979 -0.022670436833954630
0.757831168559880863 0.204251972304275997 -0.051849514309555950
0.765878431501945900 0.203288244462463352 -0.057855159800291753
0.767410556899690177 0.204026443474314423 -0.052351635807457782
0.776587624789369158 0.203944024185780948 -0.033484611396784082
0.772749135590174219 0.204192604614035628 -0.038420082943137791
0.780521299561571458 0.205156989494345438 -0.037290141321499486
0.783034274405262187 0.205026561542361568 -0.031504594971862497
0.726982484389450900 0.204156675263882953 -0.082256847444972622
0.728602410065356532 0.215791536521732052 -0.080944794869656264
0.815150448297699448 0.213178573757253798 -0.010849655587610337
0.820975335967347619 0.212517035945563121 -0.010919566794010089
0.677360243510541027 0.216849532324487837 -0.067247554947536370
0.677151681825504670 0.209647970444195614 -0.063728839195276277
0.747612406806433039 0.204236376459909358 -0.051250757743540709
0.754371464927641289 0.232093535978516202 -0.021294006539586643
0.737562674171828525 0.202999982082247177 -0.050617756726371546
0.770405941789037430 0.219282259932002122 -0.071508061242176582
0.778294496228043364 0.219476043714467217 -0.072328221725727337
0.777540154234003911 0.213096660445538905 -0.073837964161301908
0.769862503301797063 0.212803746863009263 -0.075132172841768943
0.810849004696415965 0.212643961768587270 -0.027552549647077266
0.818169098565046160 0.213592047860582279 -0.027004323456660737
0.816967221336852067 0.209347741032861079 -0.023510921717299498
0.809303108359105128 0.208359648126773128 -0.023609698736991338
0.786513536955835257 0.205302650622759764 -0.020060480444129281
0.794953040552028201 0.205863461653042618 -0.019284205743336828
0.794167862200364172 0.207971640646297529 -0.014421980403400182
0.785334303612961970 0.207154464549505896 -0.014846198987084520
0.785831019926929164 0.212226199855085701 -0.011890177468915583
0.794891321754552571 0.212880350336783486 -0.011838754086272725
0.812093309146643128 0.219013529572090387 -0.028444005208187267
0.800788251784282923 0.217724784334041993 -0.029448050827035593
0.799662981223320024 0.224549400118777526 -0.026147791703533169
0.811908451557853628 0.224497612858906875 -0.024602880285826821
0.727558845052321268 0.233207450365586877 -0.057298461784131331
0.736792023420370534 0.227402267098054500 -0.067976276236295860
0.724234380395478272 0.230050313576855708 -0.065364531228480183
0.766055309948830532 0.226133304835596155 -0.063599502110807254
0.760403636717798204 0.220193326720122817 -0.072330614138512841
0.749114480025022011 0.224589193574731505 -0.070391118377075582
0.732979995238382531 0.223405052958199873 -0.074854403842966891
0.789548448429409078 0.217605261230082725 -0.036033795280683026
0.788355859583832030 0.223352652084024189 -0.037587239131424553
0.789486899251711893 0.223218938543377016 -0.029399032051537887
0.735384915657933513 0.200538649845328376 -0.057116645410385629
0.807906977919313096 0.213236326902655648 -0.011151768900805263
0.702316576156562733 0.237470446442312716 -0.020038771857908425
0.710756400901172203 0.235328484619618028 -0.019572289590227953
0.712464354858257987 0.241107032484708550 -0.032627025102451156
0.702836944529735108 0.242691004488320372 -0.031273756207773354
0.807972434603968392 0.206743038488468117 -0.018391546378348982
0.807556064272840546 0.208349080751607296 -0.013521950321063044
0.771697904251701483 0.203040718112693391 -0.071147784521657306
0.772639235290511261 0.205479483664680579 -0.076276847983241705
0.778276879006946087 0.207477347089235903 -0.074316887510321436
0.778342154510381024 0.205553031134890374 -0.070163899243251115
0.721093647914464286 0.225915724273987234 -0.072186900991549730
0.759227511913077802 0.218332105048541447 -0.084885774400553962
0.756214053012897236 0.210565149696803039 -0.090208930008709096
0.712946642363891381 0.232421933265486907 -0.063602164403304060
0.706876434195342740 0.238195215310196329 -0.053699796728405122
0.715837478894726265 0.235968844879392459 -0.055304107573078944
0.774665775924237909 0.226259980475301214 -0.053125358825089022
0.731217252108253946 0.235339379564304924 -0.049762031167591245
0.718909401249576252 0.237971353669722774 -0.047737104220624514
0.709012162417836933 0.240567198737480420 -0.044688586587163265
0.701067550114518934 0.242674784417697964 -0.043181383195847092
0.699264279293736801 0.239782788378791828 -0.053041368232378545
0.811037529120036793 0.225947792294023453 -0.018665661775296171
0.819238347961221192 0.224008356845671136 -0.023706694961428638
0.680105285846259511 0.243575588464206627 -0.053973936379675728
0.690481246480740385 0.241593964802998690 -0.053056347892370036
0.681492761200053865 0.246168732158175863 -0.043321568973524370
0.692249993286581877 0.244519535283338807 -0.042801368714240416
0.724282286231314520 0.238825283690228707 -0.030562155215820209
0.722023861730691552 0.239414473240310566 -0.039419192982700045
0.737833670850764789 0.236828072569018888 -0.032193702447812882
0.734666793845613064 0.237122198881661667 -0.041818306676846315
0.776511557970964161 0.230824182916132326 -0.043846572000602116
0.833943008492949667 0.218637346054536413 -0.024968144896824293
0.833229729916415973 0.214243532344441073 -0.025979846873675338
0.824660829618708791 0.213895468604941741 -0.026684227027930579
0.825660964133007602 0.218962760237374543 -0.025948248928985913
0.819169006945444478 0.219180503475649907 -0.027137149966679246
0.825479186534199938 0.223159146442682421 -0.022761790578184230
0.740442250573378979 0.233093145590840933 -0.020473642570449861
0.788201958329929897 0.207831838031186433 -0.036597091289295371
0.724684278104756663 0.232017579109169259 -0.016889892877755878
0.734791612113240733 0.225749441081098373 -0.004746987785910263
0.745428115370423638 0.227262984653335720 -0.008278201512079114
0.717583342400614943 0.224658603595064787 -0.004838019678455490
0.707351199696495625 0.227437988696643056 -0.010068685194150110
0.692536343423424738 0.230571296955928345 -0.013262029059669196
0.699400715356951586 0.229153388407935754 -0.012661751784478561
0.682816196119267804 0.232416828980272661 -0.013348228111167327
0.728362304149468565 0.220498612921999210 0.003020930270932963
0.829177552817805363 0.207126114572805775 -0.019335123703331399
0.828436718123723548 0.207806662439159739 -0.014089380801332560
0.694395878135175226 0.239021125516003158 -0.020060634643195845
0.683797849314993766 0.241156128734426600 -0.020451985215894340
0.739649972048825877 0.191558142109629181 -0.005041699278353544
0.727769109412529702 0.201314534949331353 -0.049505559965057684
0.725710027328397178 0.198990987524775481 -0.054315614882999019
0.721960350244456817 0.195980899531162461 -0.061717886278625261
0.717525231497381233 0.196854950484765062 -0.072021504153936711
0.683085051445895375 0.246446057075669273 -0.031607585456285420
0.662918610595356950 0.200556616679493566 -0.038970027298204903
0.663054443073232136 0.200697716336484311 -0.048350440095189261
0.667539735358139708 0.246889526083100164 -0.044938256338025166
0.828919796233128614 0.211251962713292024 -0.011121241538241391
0.787627004468677061 0.213730778652339332 -0.057529305505693261
0.789263379207393423 0.212961063876913798 -0.055411297167425301
0.731829399435389938 0.193825168228156153 0.012231973898483463
0.739806650996238879 0.194611250410675229 0.016974131016462685
0.743104542650987354 0.207318484176167828 0.019391809228249939
0.733890776421246005 0.209552468197558905 0.014845470025386965
0.730943422222660621 0.201038188888580105 0.015484487315037298
0.740178622892167404 0.200314555403378669 0.019453876133651182
0.717112507746281991 0.198310418130591082 -0.047905100064188987
0.716161902816027096 0.197237434631158615 -0.052532132403949668
0.717733066198558367 0.217315974451416677 -0.078245626646680305
0.716363203331447762 0.205951145774887906 -0.079520238639928395
0.786916092931944089 0.218432435312409051 -0.011560477024882623
0.787789227399114500 0.224223863872392321 -0.014875039539667853
0.779598213008116603 0.225243272453424181 -0.014396428384012703
0.798412363627172494 0.226819121604048712 -0.020020034858675671
0.793029568047623812 0.215683526291922750 -0.031268464133136734
0.791068370385665354 0.213144339961664098 -0.035207009725449032
0.722828084607068599 0.196131322636584671 -0.033805979683059879
0.709835864075965883 0.191641753487477695 -0.028349686391894925
0.752213910475442393 0.200086646422153680 0.004055916730564986
0.749183744989371680 0.198478479365605420 -0.001261044533295295
0.769327820237265980 0.204300516233253016 -0.045455327130664996
0.786861372725292885 0.225507606916679232 -0.050882430081974885
0.786895495461566674 0.228699048842580271 -0.043814993073494513
0.777759543040003942 0.204946459133743625 -0.045123764455435221
0.830260222620166410 0.215521648576064012 -0.010452964450151274
0.831546614914047799 0.219954957189485628 -0.012357718095603034
0.788338707643361891 0.227731213637185376 -0.021645893006282429
0.763733542909345586 0.201689061712005957 -0.064530534831996847
0.788638065337597727 0.219657044966774795 -0.054133107223739166
0.781760475948358846 0.222084864059417603 -0.057407106907360304
0.754205292131858163 0.203850763952213215 -0.088592348723848788
0.694230506594943675 0.244504532348423897 -0.030937445671708252
0.822888969725466213 0.209262281397925298 -0.023806301624772663
0.830840722769321860 0.209295093897422152 -0.024188771750360681
0.833408220358822560 0.221705870778829139 -0.022061411689781020
0.832340672918038704 0.222447314493597614 -0.017163645262296561
0.707137843291510859 0.206733630048031664 -0.075835592970617496
0.729430280449436474 0.202333241562423161 -0.045932495584248938
0.663131600471928540 0.203105531695026764 -0.056893308703725873
0.737558150757992359 0.216607078235877160 0.010112656895091523
0.746805285356116233 0.212847933352275753 0.015885949561306574
0.785547703580847134 0.206395458852141028 -0.045146711173778969
0.764327930585814164 0.217004591355096921 -0.078382798599396550
0.785605088906582316 0.223150902320691374 -0.060362028992680145
0.781293727215587097 0.224791989148812738 -0.066707976551998352
0.774553250957604744 0.225095934632331129 -0.065333321184588525
0.788701429003391130 0.218355359232113549 -0.058790183128137004
0.839342238366799998 0.221719778396175654 -0.016946721929258474
0.840161292867960707 0.221034443475700865 -0.021747575504914556
0.838829007817823991 0.219257395500138952 -0.012091924273651007
0.836898494874303678 0.214798411764200087 -0.010658953484957791
0.834979117624629286 0.210835577953126518 -0.011448330740424282
0.840440472910196301 0.218142140784102490 -0.024566564869377656
0.839399442452281042 0.214102162561737391 -0.025484936511209373
0.836601693453012274 0.209455003213746632 -0.023818063197024581
0.846050824541913160 0.217413017095684391 -0.024559467658071862
0.846998816835606960 0.220121927149624252 -0.021589086362394365
0.851850302719829311 0.216435387768478815 -0.011455495850184726
0.853483219254566827 0.218495177510324490 -0.013444882246157953
0.849824960893004411 0.219235399921290347 -0.013807117449734219
0.846392515082964647 0.218633883232538462 -0.012095896978178729
0.856771021357306761 0.215252149602146392 -0.012148855812158674
0.858096879103104504 0.217843231676271482 -0.013828240566823599
0.853804696986656730 0.220109626059655866 -0.016994002418002373
0.849254024626284409 0.220427037775085266 -0.016678099700612480
0.858802327832718149 0.219667097537533357 -0.017471757326526307
0.858375620813298545 0.218936465659955198 -0.021227230005980313
0.853562908941931764 0.219231120696469300 -0.020642233725344857
0.849812140188091925 0.219914547394061161 -0.019693686890110300
0.845471093853173539 0.221054173627465211 -0.016724900978369900
0.861050546058101940 0.214892236134478609 -0.014114526817395830
0.863486724133596950 0.215602815346067928 -0.018324290706259540
0.862849243105759167 0.218634672717512274 -0.017866770655710629
0.861301947320129435 0.217399378040791846 -0.014596241016241393
0.843187389656921082 0.214277241716136546 -0.010860685924166091
0.849866941222046979 0.213121990604728806 -0.011447187683196986
0.855450947433945008 0.212058319975147430 -0.012573195717608536
0.859852964075246251 0.211874884549823950 -0.014902506478570131
0.848903941773717086 0.209682279031608049 -0.012696109919423796
0.854717521028455773 0.209524232528777193 -0.014257078186675778
0.858325707336687449 0.209738959303876732 -0.016406353878362208
0.848710214592080514 0.207410975947361270 -0.015597713048899366
0.854550271588576549 0.208169742325038265 -0.016817051353090723
0.840960580895531717 0.210425223193124900 -0.011812937674668698
0.839966336408112801 0.207623750160412984 -0.014696094559629468
0.857198078871304503 0.208919970622125251 -0.017755917163334141
0.862140255435865810 0.212820655621240029 -0.019117111060795184
0.852607167638549823 0.218249938986848996 -0.023282472827704601
0.857738768298229481 0.217218244117760750 -0.023608084318472486
0.851866189604208124 0.216115715777109640 -0.024902431348744990
0.857086688922080286 0.215072211530925123 -0.024787626429495606
0.861857647692231388 0.218635754292867690 -0.021283231334713215
0.861951974466737214 0.216507386288996073 -0.022598470012436478
0.834075964995013019 0.207720496168835672 -0.014410265475905666
0.834774626298511735 0.207408782450358542 -0.019648687380488916
0.840524351490422483 0.207246463759288346 -0.019583690208992189
0.848989076848732704 0.207022354676419940 -0.020293944531024649
0.842233538061943676 0.209557674480371298 -0.023640866255923702
0.844997844864943559 0.213676466793950137 -0.025335844305605919
0.851130437449456823 0.213196510706502279 -0.025254048388471798
0.849773777895397764 0.209582217190601744 -0.024067523755507240
0.856103477147477698 0.212418776963520600 -0.024698250792366698
0.855234468382042867 0.209851852468058153 -0.023470448478058622
0.854834854164056024 0.208202903943944001 -0.020431584703751844
0.859261207247179470 0.211639174284676213 -0.023109879427314708
0.860831137943777636 0.213979331107005594 -0.023236436952353952
0.859953355975779821 0.210719133870062414 -0.019801409497186968
0.857788268387693842 0.209334967294030588 -0.020233854615590872
0.857792699523215019 0.210149039142538713 -0.022477581398118601
0.827561604907506965 0.210402614387183523 -0.046088018315612114
0.820052500842539445 0.210882151222647890 -0.044705891573483918
0.819648212378460639 0.209945953271443997 -0.049432720812438047
0.827353025740006576 0.209687878358686519 -0.050977201001104450
0.828114676636222957 0.223049656222603337 -0.042758716463262389
0.821145519016890701 0.224069901748468525 -0.042121494625751633
0.820974573525824591 0.218679580989159461 -0.040606213166508059
0.828003916915906801 0.217458235845052333 -0.041631550406424987
0.827607416999418311 0.225743994904354733 -0.048376705004142102
0.820703980925746923 0.227018634672172204 -0.047791003794454529
0.812901175532474984 0.224725440911061974 -0.040964353992869483
0.798821051574715280 0.223891294048861933 -0.039431332582822297
0.798808880280919231 0.217878304074241858 -0.038415542316927613
0.812785370328724555 0.219022209191458095 -0.039686594690291593
0.797523963554715665 0.213359560987914143 -0.055256509983221284
0.795922063758239706 0.209604321894201528 -0.051817631960025153
0.820550940417862584 0.214065989061286044 -0.042042065934511784
0.827875652674128659 0.213079589317424961 -0.043031212829694764
0.811611456781774154 0.214357797877263750 -0.056478409070770411
0.820475709975705070 0.214846380186970526 -0.057590006673279778
0.819925656438382333 0.211325971101816584 -0.054220137344719505
0.810959203195057432 0.210676700345023726 -0.053006529210763209
0.795690272594923531 0.208272341802588523 -0.045850193748379953
0.796769217739862312 0.209200356333979959 -0.040116796868985310
0.798170671252107056 0.213039684950521752 -0.038283484180524324
0.812296106041843768 0.219965944655489604 -0.056957839720925822
0.798688328728466401 0.219789547072953756 -0.055331925874472623
0.798452587519216994 0.225738808857749218 -0.051710179102373598
0.812608939748334258 0.225292432046233254 -0.053495695694832208
0.812150869565231415 0.214056568284597154 -0.040532759926568851
0.810619762313910974 0.209467797929651561 -0.047705607180225373
0.811339442398692934 0.210413787797179480 -0.042905869051345302
0.812450051023006048 0.227624151662668972 -0.046892268464206785
0.820814056427730199 0.224573401562980279 -0.054356684656752856
0.837872707140098871 0.219254565192023715 -0.058460605304249028
0.838016533206820791 0.214964567432248455 -0.059518134190486821
0.828050482257565168 0.214786733055747442 -0.058705879478061711
0.828304861331748077 0.219505422838841779 -0.058164055734232452
0.820945467314438737 0.219692620009484557 -0.057602274252850014
0.827855355665055859 0.223854620448091429 -0.054588074755891690
0.838169199073559357 0.209344820608370397 -0.053089085194399019
0.838093005604909513 0.209680415891592781 -0.047950585144196166
0.838278815988679371 0.212043588720775250 -0.044724230738160821
0.798439858342324338 0.228486712593355845 -0.045030764136481514
0.838109967588452132 0.216067177988857995 -0.043461379453241356
0.837859806441420996 0.221536638362223842 -0.044177190264594351
0.827625959356455665 0.211112123048369765 -0.055729561193238762
0.837869561722214717 0.210986130980097053 -0.057424624542619755
0.837322207990291112 0.222886681437471673 -0.055132876766305156
0.836969583801430717 0.224518802714566812 -0.049383016732427704
0.845202039421003026 0.223272991206185489 -0.050659353934977600
0.845183357044548056 0.221873847310959993 -0.055902511022927995
0.846103499487072752 0.220735958480106548 -0.045595619147482613
0.845542184060504187 0.215651001959954902 -0.044709839983135033
0.844919153183737337 0.211968979515862826 -0.045951723261032813
0.845422254955949248 0.218981793712665573 -0.058758867533746748
0.845060991510087622 0.215299630807409409 -0.059787667023984033
0.844238011080968742 0.211345829862692208 -0.058058624504683784
0.852552021490226131 0.218572701910971001 -0.059635464019732576
0.853562367905573049 0.221273952190607304 -0.057159005247015296
0.866102990803326533 0.217615821579847407 -0.049496107014740012
0.866749345708734742 0.220476177985463401 -0.050961616978616564
0.861516761694073430 0.220637454945142558 -0.050082177939803657
0.860464204034252389 0.218610298696619881 -0.047879282643658330
0.857738354013466653 0.221330066704962997 -0.049921352910212748
0.854502308859135695 0.220462896048627482 -0.047414441699872682
0.861447142298758073 0.222095171986523732 -0.053721197302660152
0.856975185614953894 0.222086565309666834 -0.052890236313510058
0.867152251764053528 0.222701109516095314 -0.054826383572922924
0.866170589174591110 0.221668501902300530 -0.058432949811754675
0.860544290306245241 0.221201200077019350 -0.056930377623510435
0.856829072900373023 0.221369627873106795 -0.055829486920914183
0.870951243976346379 0.217879787105943551 -0.052045343016102204
0.870656042747227188 0.220493701666443609 -0.052117713087571675
0.852592264131496358 0.222666200630580596 -0.052090742296215922
0.851979787519822729 0.215743696118199629 -0.046160178794096451
0.859155512336697402 0.215038939788465805 -0.047540107976637540
0.865621232966423237 0.214562497485659975 -0.049692357970797997
0.870231246993843910 0.214866441055309776 -0.052704885849509359
0.858281321117013607 0.211445431218824365 -0.048743311661900261
0.864839327912900080 0.211799893633242448 -0.050979515283846970
0.868556811350477687 0.212679526471908992 -0.053874347974975416
0.857680624530813396 0.209092014546879645 -0.051940506398274501
0.864134028577751012 0.210214118253616800 -0.053773243278451330
0.850428018564401422 0.211838804809501319 -0.047163437617975874
0.849520933972350734 0.209534519176544337 -0.050190126668280620
0.867078806772203503 0.211588689089947296 -0.055079976569704397
0.871875561046259850 0.216310472657020858 -0.056770465669670082
0.873117440959416014 0.219406401841450271 -0.056272891031619150
0.872368563339792513 0.222688709460136885 -0.055597974902840713
0.859793864543566433 0.219771409221494185 -0.058819547667277386
0.865759581103452525 0.219555853579179339 -0.059835839607590598
0.859384632360686296 0.218156200824010799 -0.060728120256703266
0.865466310289622953 0.217844369652753111 -0.061226726373790265
0.870525145299788194 0.221978679695234993 -0.059063868426771332
0.870724882033459990 0.219886579646754038 -0.059790156832044764
0.844379625319511606 0.209783474607338455 -0.049163811719887290
0.844102003331261175 0.209517897516136031 -0.053831750479785126
0.849224573621388257 0.209197520911127394 -0.054772119376804228
0.857335800731615527 0.209106423014491755 -0.056613014394282270
0.849523522331694148 0.211353465726449197 -0.058861218615906298
0.851344477330411742 0.215334900513024452 -0.060553891670993558
0.858395166617565542 0.215373386529308708 -0.061343204858423012
0.857411612145052349 0.211770531008243529 -0.060211551517228713
0.864410219749860653 0.215430915096965186 -0.061348001321667921
0.863567118610881646 0.212585493017323185 -0.060424417093063870
0.863637765068533514 0.210335122498350929 -0.057613888811888524
0.868378605757750166 0.215006840449875586 -0.060275398590014587
0.870021750816117878 0.217357805892179179 -0.060355997818992209
0.869708021655408503 0.213852259908269643 -0.057283773906405856
0.867265217331154248 0.212028888471881366 -0.057630250764329628
0.866698708828133269 0.213144664763563196 -0.059791174902208803
0.815135337561327278 0.210012185102537802 -0.069528545032842559
0.809323050910933040 0.210567377152829333 -0.067866831814726761
0.807577230865911710 0.208179227967221298 -0.071993835752599919
0.813598763165172878 0.207527783414965195 -0.073798964057429806
0.815837195012837024 0.221426413666545863 -0.070044896470764520
0.809164145916397737 0.222688065910244398 -0.067683561095361805
0.810399544367870428 0.218843949527591702 -0.065791410139044992
0.816485808444729511 0.218207838942284044 -0.068078678695984801
0.814584427719503346 0.222607714190560496 -0.074703804572321397
0.807325356334582689 0.223884286403447957 -0.072991164847973980
0.802405987705182899 0.223131452147247694 -0.065514061633152015
0.792609260301956775 0.223159248216619754 -0.062809574324555126
0.794292410237049995 0.218015580980353590 -0.061019375955168084
0.804099693034456497 0.218705315153624041 -0.063496649032995942
0.810404655622750436 0.214551315079007016 -0.065971785038433317
0.816339251237549246 0.214154985330301445 -0.067940942598391660
0.798338706527081055 0.209832462875722520 -0.077818314996180235
0.805727307214569866 0.210505853431145112 -0.079709608070214238
0.806294423541719985 0.208293770549580287 -0.076495904968084061
0.798940205115141744 0.207821523145812315 -0.074382797333005915
0.788342221328370507 0.206973724387763403 -0.066672658611963448
0.791085319893708894 0.209040493731753513 -0.062511906987778768
0.793409670870192318 0.212969674365320855 -0.061083281075543797
0.798342185027343998 0.214810120050663939 -0.079473862677962248
0.786759481110529402 0.213967599838623901 -0.076041754052382227
0.787584515882007286 0.220431002098832068 -0.074500598502402995
0.798629965365279193 0.220943218853330015 -0.077082828610298401
0.804186851613666209 0.214011407604863119 -0.063866697377199494
0.800563737164367351 0.207453551043824680 -0.069887380450957451
0.802744916839181699 0.209903282576905104 -0.065738932020591695
0.799974211888622166 0.224267538005915534 -0.071109562641401142
0.805929547421924575 0.220653056164676398 -0.078493787022925823
0.822856989256205873 0.215444396170672431 -0.084344238727448312
0.822573562928656243 0.211181280978395197 -0.084397280667163913
0.812230426215980739 0.210486874252947043 -0.081822123029838684
0.812461809383557498 0.215176967508728501 -0.082433568608461502
0.805555302626778102 0.215018676176513518 -0.081074665562221288
0.813328164264337738 0.220099707611937673 -0.079798792242072120
0.822977348228533301 0.207207789021105260 -0.076697252451414372
0.824186909073178042 0.209015775938182713 -0.072349759998245333
0.825178704892483794 0.212989091151319393 -0.070722593482951332
0.789826443646466037 0.224665651235940178 -0.068606928444459772
0.786345185109648237 0.208723988068889477 -0.074668724013889354
0.825628891305695722 0.216598615260186644 -0.070861301402522531
0.825447740289129261 0.219727503499679205 -0.072604147182845982
0.812457392946114187 0.207892988516808042 -0.078526506781473021
0.822174922199824576 0.208017566597498565 -0.081442098713529296
0.823406300659115464 0.219460302325913265 -0.081658785465462347
0.824213965706133700 0.221501577707745895 -0.076934216244102571
0.831206042279618140 0.220736256226548938 -0.078550270789135498
0.830267101878335745 0.219202131488676843 -0.083338587277905357
0.832633651878936787 0.219144459640086026 -0.074205218978603424
0.832317817717049047 0.215717715445967850 -0.072748756417472901
0.831283135081375746 0.212296542527921017 -0.072675754156632466
0.829754758794898351 0.215335862431624170 -0.085757033156582549
0.829353914461255726 0.211647969878890785 -0.085647248198230802
0.828125240967422460 0.208394684147284986 -0.082827323354792856
0.834839114966387408 0.215016802212575464 -0.087204507679595714
0.836531603307936855 0.218423536890614167 -0.084722563544210858
0.849932404254926221 0.216222392047558415 -0.078208291758564003
0.849968830815373777 0.217860275907641704 -0.079889938171299052
0.845249699770086349 0.217734988869932672 -0.078714260863735411
0.845111410539622576 0.216744607234529624 -0.076648214376868987
0.841729343370779537 0.218609014387638606 -0.078138483817489238
0.839177534976061179 0.218502958892557719 -0.075982751896349399
0.844617886598281631 0.219481908550396648 -0.082051545147285590
0.840399093691367782 0.219566355863011098 -0.080835553432796067
0.849342764638533976 0.219401063040482264 -0.083508629718905866
0.847513308515279062 0.217886238125404946 -0.086956062374646148
0.842875800374199846 0.217860182979503852 -0.085309955180662617
0.839685328481122650 0.218780846696968678 -0.083805126765712834
0.853659882018769411 0.216280957571179044 -0.080742822474565781
0.853054565096729722 0.218034433442405390 -0.081340648722016462
0.836721761562490007 0.219922741329292543 -0.079890765384146231
0.837713012249771238 0.215144111967513152 -0.074150333088183210
0.844018596487855377 0.214083556288709759 -0.075606969333656293
0.849326958044441693 0.213525330119084561 -0.077589415356680180
0.852717955321330545 0.213293948521457277 -0.080531294221302355
0.842647712098972490 0.210935490078331206 -0.076064836812837169
0.848011849864694356 0.210757976036079375 -0.078230921311909313
0.850879766612294031 0.210777889915629874 -0.080851211704262876
0.841198378745995679 0.208251312103881453 -0.077718544533291689
0.846757855790114644 0.208681861657714046 -0.079849673910808064
0.836240540465190030 0.211683971253150943 -0.074322132367700994
0.834445241809311344 0.208835510611541403 -0.075940287105964538
0.849245813453347820 0.209499409051296492 -0.081475947309794905
0.853205833276289183 0.213435579710731321 -0.085167520811340477
0.854283350267541430 0.216718485091934698 -0.085163060949008579
0.853388203624370623 0.219310042619943940 -0.084787392328316710
0.841455721027752679 0.216600129851769019 -0.087373357395944720
0.846495741816656655 0.216051502161759834 -0.088557922007129822
0.840359382925858989 0.214138560796378857 -0.088299967700613616
0.845830544726023592 0.213815318942417593 -0.089100061684690673
0.851041165128671229 0.218187041003678167 -0.087462300046808342
0.850978711226312967 0.216425013069387134 -0.088311734845755288
0.829798638353982376 0.209169261131745443 -0.074278482486409128
0.828402892409699998 0.207616283357429238 -0.078173430460242152
0.833120272034542975 0.207552828873315137 -0.079396927688659080
0.840150771562498178 0.207241405169483778 -0.081463575028885349
0.832678816667337451 0.208503667621297822 -0.083822262009117868
0.833868181291843258 0.211543908032852196 -0.086514939331295032
0.839663440106299563 0.211222657534198582 -0.087722372139596411
0.839218184493996655 0.208528107470059260 -0.085385334022763063
0.845175635730606944 0.211256573925643953 -0.088394201592099542
0.844930351067894270 0.208999372566351899 -0.086463308449074558
0.845693312790955942 0.207959967191280459 -0.083116775387939448
0.848961834810713079 0.211337806318908333 -0.087641196129656859
0.850091249535635862 0.213862049150303130 -0.088429051970452796
0.851152529759440002 0.210966960111049290 -0.084563663170608344
0.848974410354119358 0.209317441145396133 -0.083982139980703030
0.847877887680227427 0.209681328747068463 -0.086416894605061703
0.786610953317826711 0.207160023767802071 -0.071028121448703505
0.789373258454423632 0.204818943738724418 -0.094018576096847079
0.785182491162350171 0.205365349029325406 -0.091168884267696024
0.783167422949006209 0.203453728054206417 -0.093928327719299681
0.787258490781975184 0.202825797399387081 -0.096756678105691538
0.789881072587420907 0.214974682958004926 -0.096649587503360973
0.785134789197247440 0.216061192559820203 -0.093484927753241284
0.786667461963374337 0.212905684289295016 -0.090511614748036165
0.791304724922685665 0.212154599738134692 -0.093730544286649550
0.787168603805442513 0.215036655051668912 -0.101227602172338435
0.782165540679413462 0.216115519432583170 -0.098357602533400854
0.779485463038515958 0.216268344066243873 -0.089699349164943418
0.770539726864740371 0.216703138000360812 -0.083385070128033686
0.773345485305374392 0.212421930871062037 -0.081279030264465951
0.781269369079727549 0.212831182818626313 -0.086813437103037724
0.759508262867530037 0.203837191950410390 -0.089695968596580800
0.765744772154780762 0.203782828256176163 -0.092569546537686412
0.767924617449518454 0.202151261979138908 -0.089295926650075449
0.760973742556523503 0.201341908735461705 -0.085930068980286517
0.786597403152202390 0.208838538060944545 -0.089821540312471887
0.790925163562005040 0.208303626398259861 -0.093065567089245363
0.774371487053147511 0.204209858423396895 -0.097458210850662877
0.779416973446632744 0.204414550420032537 -0.100714309788083309
0.781210107458518488 0.203094292567979617 -0.097360080211117750
0.776477258588159747 0.202652410984953152 -0.094223927941167157
0.764176340570609791 0.200853321921491496 -0.081958013954974276
0.770387593737234533 0.202319646482346571 -0.085918838193680416
0.772412444387437613 0.204304143042681380 -0.082776209907661366
0.767917410418054058 0.202060683655597872 -0.078271152128745830
0.773780372609491840 0.207435285506355177 -0.081475666969939201
0.773213034497091223 0.207842704591654742 -0.099351183508723018
0.764368820317885334 0.207344621701436971 -0.094264809820532980
0.763802010459221470 0.212602448083527934 -0.093835058053825193
0.773787019511826601 0.212757593551254259 -0.098780273368270458
0.781544394656447872 0.208653301423005727 -0.086516176775779344
0.778538621887834847 0.203066989220660438 -0.090900363421833122
0.780383362992161711 0.205241319044510373 -0.087920163453786782
0.776262505810683012 0.216633016519325150 -0.094442132085501090
0.779657653899427983 0.212499133607314650 -0.102046963036279817
0.789287005757035254 0.206545622186312006 -0.109409376323547233
0.789451044037909777 0.203481996965074130 -0.107756962411344401
0.783657986459439515 0.203922159611326426 -0.103850368154325134
0.783130089489234460 0.207400492744564763 -0.105851505036676022
0.778597263045653243 0.207934069516800879 -0.102800491571655897
0.784465178857280510 0.211775658989341059 -0.104996231645743801
0.792704964135034440 0.202090343572993297 -0.100519043850801862
0.795159776934420415 0.204052656406430083 -0.097856477498863989
0.796578127214008003 0.207346650436922297 -0.096899608607360230
0.766496611315245047 0.217871164906384224 -0.088658713666566524
0.797211811924842029 0.210752573065725868 -0.097655148385357077
0.796127877803789130 0.213449141683113963 -0.100281318170774195
0.785280996490821059 0.202514404248370083 -0.100324072206491408
0.790792356910663963 0.201950931662695593 -0.104265506319164258
0.790690282423970658 0.210537437369925529 -0.108473029612691271
0.793309162137141533 0.213564251311865849 -0.104588444822098434
0.798364815424643770 0.212945555300168260 -0.107463720082093012
0.795847101021470826 0.209974119273457327 -0.111342520291229902
0.800919837970705872 0.212522349049636267 -0.103056902676851039
0.801464796710764982 0.209965320740020167 -0.100373696579408603
0.800435660129226623 0.206707067955789997 -0.099700272820976030
0.794168460431803003 0.205872173115512647 -0.111977076000462070
0.794093468503235145 0.203374109660025754 -0.110072460545620102
0.794853454469486520 0.202184300413833090 -0.106664966832574537
0.798831439641913721 0.205606014500021000 -0.114217662454139376
0.801134823039680088 0.209430629446401784 -0.113760652831269446
0.813894065500376795 0.208819150849114898 -0.108547793757799396
0.813173880323415088 0.210163227335062097 -0.110128546354180568
0.810018604995580760 0.210449858117046251 -0.108761769561110611
0.810259794537257938 0.209703376420580179 -0.106542320277941235
0.806925544837765463 0.211336376986255431 -0.108016003782891945
0.805483487507223761 0.211400777369751630 -0.105559316874358253
0.808346668303135618 0.211273483201134954 -0.111930316584085490
0.805075082962786515 0.211529393180183239 -0.110525262473053554
0.811948402214829557 0.211074117062013872 -0.113798389667496544
0.810089570712214435 0.208638259141493088 -0.116914808874310452
0.806544280644408529 0.209310048110219082 -0.115352683705412393
0.804089517189582326 0.210291861430921934 -0.113510044677775798
0.816502228283408238 0.208410102826012078 -0.111362559896055119
0.815571439460799685 0.210030862158821330 -0.111864895290614760
0.802358194643265410 0.212088242443628033 -0.109333856258436932
0.805377171418722781 0.209232980917578471 -0.102782967369936001
0.810074184229742422 0.208024858507016491 -0.104955860406892351
0.814492336201411149 0.206836408601071442 -0.107732057011179480
0.816508471449506890 0.205940132998409769 -0.111226360168115671
0.808831839329175017 0.205627263912215918 -0.104574116316060978
0.813103643021487965 0.204623179946191003 -0.107614373066826752
0.814972213363749809 0.203969619888240777 -0.110758520696585108
0.806749590173316600 0.203327887756823172 -0.105096295252365621
0.811226008017107536 0.202842088409710380 -0.108094295695101303
0.803949753459965444 0.206524140403308548 -0.101832308157049328
0.801857802727940050 0.203944578302485025 -0.102393331907034729
0.813341706591154900 0.202898600202162022 -0.110312913717001748
0.815727856762726411 0.205307488923196446 -0.114687871662059446
0.816093379912573358 0.207843226030404615 -0.115430045379145210
0.815054237706012707 0.210465928585920309 -0.115450294698482100
0.805093818750701962 0.207426226480887044 -0.116604578672309278
0.809454546238276618 0.206460564883514608 -0.118037540295727272
0.803612291233359755 0.204859684778812001 -0.116124505008433285
0.809044775373651603 0.204149784654001187 -0.117381650364210818
0.812945013016366347 0.208780485679053385 -0.117633152382765518
0.813268682150688815 0.206753419288913970 -0.117814210871310984
0.798773035828274525 0.203845605837832733 -0.100540211961480191
0.796690751185119672 0.202136942650091772 -0.102936393604641671
0.799794908289251927 0.201993142786502156 -0.104862203439588117
0.804743431817339649 0.201558307770041051 -0.107277182718029551
0.798394480224726699 0.201898471540888858 -0.108639535357339070
0.797975866796076128 0.203128406441245746 -0.112037131969579609
0.803210777457397773 0.202662884263142828 -0.114214122892424344
0.803461472744648519 0.201299977233413280 -0.110984618146203903
0.808653767788866773 0.202388342483750705 -0.115484965561534342
0.808807027588563265 0.201412746590430486 -0.112845964558834069
0.809739170719824708 0.201555617975044982 -0.109921779503661624
0.812506658242842739 0.202920850535804581 -0.115112130940071930
0.813107112441033619 0.204456628906328403 -0.116855604206872965
0.814477561344019829 0.203482814545299900 -0.113414436074557576
0.812813256357434288 0.202382395349735622 -0.111967916743476031
0.811768194209686822 0.202114890480240811 -0.113507533263819585
0.759222249168128527 0.206896618301340068 -0.091539278533402019
0.759380650757261466 0.210505447772367210 0.016629769054947650
0.760946188768352516 0.207691661117917842 0.012570345912060518
0.758913521126215462 0.197333898090249371 0.010762043745198405
0.755305471623451963 0.192847121573965052 0.013853392886500499
0.751439903099333062 0.191897248479743016 0.018870727333961657
0.749925807306074943 0.194756172737009986 0.023017406161188959
0.750503132772850412 0.199488569322633008 0.025275989059627482
0.761148495852720264 0.203160940619560693 0.010420360192642404
0.756332177625842816 0.210677706025499456 0.021619655349031191
0.752749136830660914 0.205925519677927910 0.025142602410684542
0.761333769625427981 0.204895336236595477 0.031318506290016958
0.764496856421405746 0.209887583056674210 0.027314444526902383
0.758627974868467225 0.198329687481511557 0.031636542916721536
0.757284192634567699 0.193380390047115824 0.028432288744451768
0.757612725010197718 0.190885905614611606 0.023302349308743048
0.766809802737515311 0.209934100734357892 0.021310645106690319
0.767461538737595927 0.206910503737646967 0.016568563753918950
0.766469033639844088 0.201700952204871442 0.014103836133911406
0.773765820164303508 0.209360463150484094 0.026444191090419535
0.774332778450059100 0.209009043443529413 0.033775326978837478
0.777173782700120386 0.194630506003637321 0.042386678539759443
0.777566792696878895 0.198606861099360377 0.044271468776057872
0.773907668889573630 0.198836517615980868 0.042013026866614608
0.772428562390392370 0.194868109919101751 0.040273491509894392
0.771753519115345732 0.199871788224511071 0.040120547112296616
0.767875858631539510 0.197352530474866172 0.037610723096293049
0.776171941924114983 0.204385948346378354 0.042167666433728025
0.773836914810439258 0.204261964661086509 0.039891823819623702
0.779157014581921992 0.208346576665939254 0.039467420802777931
0.776110931690383143 0.207852107205173803 0.038447018411975044
0.779614700739793220 0.204216939325354951 0.044983483119622920
0.780940565939878817 0.198892661869255055 0.046010254850351887
0.783063921620193559 0.202943700622714746 0.046116819920667497
0.781906961218213570 0.196178438314030090 0.044408435557986868
0.770091156211445416 0.204211114316252190 0.036980208331947394
0.764618815901891735 0.192358513730353980 0.032967274991702641
0.771440712540062967 0.191472518492657395 0.036733804544998534
0.777775709668367843 0.191809187648394691 0.039342665082048561
0.783095469818462342 0.194154097378601537 0.040738487948277828
0.772190689602908487 0.189673782235671912 0.031529995682577985
0.779146783555528244 0.191187845099134140 0.034707063536144389
0.783438956526826935 0.193874123799039955 0.036562462731083378
0.774082962532155139 0.191128560384927954 0.026534506432230303
0.780330839460262271 0.192764476079156560 0.031100911760285784
0.763777468625262412 0.189855801419144404 0.027048324040501812
0.765283972823255221 0.190952288906581003 0.021254266917906873
0.783334846641132843 0.194413984196805861 0.033677347284106707
0.786699010692343714 0.198769097090399610 0.040348993284615678
0.786027144326904903 0.200567200668950424 0.044467997756323312
0.780390101497970279 0.209140328304908668 0.035509201859327114
0.782197530143459940 0.207893195010313003 0.041986513018744537
0.784244955324048476 0.208011852166746086 0.038233572046032560
0.780460618430165454 0.208295867198433488 0.030554015738842172
0.785142126014042652 0.206327724137984447 0.034341496735463009
0.784512739305584739 0.206437402565981698 0.044079806651014707
0.786587780183487073 0.205504566158298707 0.041453872500230006
0.760057335948000845 0.191753838764432444 0.017822071776346125
0.763581450703773257 0.195767166828216932 0.014574850516813289
0.768644158153464541 0.195413378739096533 0.017960070520856623
0.776517369007222125 0.195460315197172690 0.023349256807198668
0.771966408741522114 0.201465320449503271 0.017651273683487949
0.773624674528852974 0.206831265689261912 0.020936183555227968
0.780388517889565869 0.205567056266229481 0.026376541732180712
0.779128646383556944 0.200948898233507894 0.023380546181986529
0.784879975715328082 0.203573233537493931 0.031121157804348553
0.783687441860983602 0.200165505861635784 0.029186022282990890
0.782102954359330638 0.196094390860168138 0.029235933796776067
0.786502075592074856 0.201057923593938231 0.034563495943694227
0.787337558448982899 0.203285004702409122 0.037848536318927303
0.785873733151676523 0.197546779802989736 0.036519473245257277
0.784645203014948556 0.196845312488418495 0.033249100135141756
0.785323175363393799 0.199436155493295630 0.032472443325266845
0.755520236200230788 0.199671021333700460 -0.084011276441889646
0.758479551250853978 0.199139323699452059 -0.078689211148088023
0.751195568820078985 0.198566466884776360 -0.076884979557375957
0.742388614165379934 0.197436984919359265 -0.075265989958092985
0.732993762744456712 0.198781283846806572 -0.079345598303734680
0.744546051021015898 0.198562712227595417 -0.068914089407503959
0.753317288682053943 0.199558465923964840 -0.070825447520903834
0.763125476704495598 0.200632855314570840 -0.072700890810984575
0.739248983177192343 0.199531615925095274 -0.062109637994620499
0.039057360237548466 0.452640946100734298 0.099101242063928077
0.042401709873604289 0.451558616333860907 0.097069897710960223
0.043774273565526871 0.445761727925719942 0.094330493807305488
0.041231809107671255 0.445473772126816214 0.096210716908417357
0.038021292001832720 0.445440627787793364 0.097962113326693329
0.034174923389512377 0.445648513207227481 0.099060520012462377
0.028755254724055906 0.453014544270972541 0.100210224996853087
0.034236855648327562 0.453385747643384629 0.100324337814480330
0.019195292826488158 0.447577628868372546 0.097298690139205987
0.021041713022407055 0.449004978281902833 0.097360717943385175
0.019955694211040365 0.446658560761534928 0.097664966062412123
