VERSION .7
FIELDS x y z
SIZE 4 4 4
TYPE F F F
COUNT 1 1 1
WIDTH 749
HEIGHT 1
VIEWPOINT 0 0 0 1 0 0 0
POINTS 749
DATA ascii
0.049883670565136644 0.013706652940307354 -0.007786283147736516
0.051259830546455581 0.013392669179692446 -0.006191656062184028
0.051065689038936823 0.013692314273572918 -0.006555818989253934
0.050432657635805331 0.013818411228056642 -0.006529713329903283
0.051344840285086554 0.013058894227955043 -0.006146058159875276
0.053557342867925357 0.011493001300311010 -0.002847489850131741
0.053674306300489513 0.011554000149332276 -0.003234731198422938
0.053434436673913309 0.011236035651796081 -0.002600241723418974
0.053172865622989299 0.010933980487369524 -0.002645557669277658
0.053040304730573487 0.010716800535160024 -0.002860706422340769
0.053697075448673783 0.011362039224645295 -0.003538466098456906
0.053577268587094565 0.011105004368884950 -0.003734595518368102
0.053364843624177566 0.010828308510134587 -0.003770545241832375
0.053975242968360607 0.011200825504894976 -0.003538209424611906
0.054032884814078169 0.011360999070233984 -0.003240527076271197
0.054079855114726759 0.010723738736338704 -0.002522542009997077
0.054209634839974263 0.010881686489267626 -0.002612275559591213
0.054038424443346354 0.011020751483598436 -0.002642281224652276
0.053858407428945744 0.011029084961440800 -0.002556096160852009
0.054321462874150066 0.010527756265924294 -0.002600094087834620
0.054406822021716900 0.010691318798419332 -0.002632466943090986
0.054293532639046682 0.011015349192981744 -0.002838447738171704
0.054094906344768365 0.011170610193606047 -0.002828457627270512
0.054517006453335071 0.010867134041814322 -0.002828512167617253
0.054554909161273604 0.010909796741788779 -0.003124800557819470
0.054321858714489531 0.011077470478749374 -0.003155789671939466
0.054143720835722518 0.011203910965118545 -0.003105035439409879
0.053897231604189202 0.011302532330992486 -0.002830394924794318
0.054507222633239039 0.010420064556854786 -0.002722389618171757
0.054701306767553672 0.010507924977213054 -0.002936186863089197
0.054658172522501450 0.010681504708294279 -0.002818984933620345
0.054551343558270911 0.010600732810675525 -0.002674730823946557
0.053558358180023427 0.010748647300720346 -0.002612932239902915
0.053831730282547487 0.010501976179810489 -0.002657972504920876
0.054138779730018960 0.010281497141179969 -0.002771733217994545
0.054423141269615193 0.010219944608559036 -0.002890612603906327
0.053784851055786724 0.010288573501867779 -0.002894759784663551
0.054088183572496541 0.010099326070370382 -0.002963854194027942
0.054365938409813366 0.010069500450594682 -0.003060186043000769
0.053786310094640917 0.010126896159080533 -0.003156228252818742
0.054126145846947388 0.010012747760485918 -0.003162602817984043
0.053385215697511236 0.010538410108864041 -0.002874205442795487
0.053332642881198461 0.010390527001742842 -0.003158116541626292
0.054318363654288555 0.010011351365635888 -0.003190034822804097
0.054675291563859148 0.010321521943836735 -0.003089944511794209
0.054331920102770756 0.011090480593427420 -0.003363345427742621
0.054572579746826694 0.010861199656530453 -0.003347628868442961
0.054260560785943768 0.010930989892248664 -0.003524856896858508
0.054490718763369868 0.010709617105516898 -0.003489799417309110
0.054702750648547190 0.010774883730083881 -0.003079667514064807
0.054741709405905142 0.010683810922983416 -0.003224414328116338
0.053006351025372475 0.010543171270691872 -0.003171478121532723
0.053116814158065358 0.010588955126866568 -0.003543628738760592
0.053431486093680480 0.010442096064183580 -0.003516195947111609
0.053853352036792639 0.010188389527809063 -0.003503260006465966
0.053626409346658105 0.010663514823447575 -0.003727860081779416
0.053868087381142293 0.010916885351956567 -0.003700021443652030
0.054195115635531602 0.010741615869098723 -0.003620009214673502
0.054005356784754516 0.010452333167992706 -0.003685136007136377
0.054409451351386376 0.010487810186168390 -0.003569931323818450
0.054285582660518319 0.010279151896097427 -0.003581445131676767
0.054199495020718885 0.010056444871123558 -0.003420615067807483
0.054548412917085863 0.010336960100952945 -0.003447516019030473
0.054659554280405129 0.010499438774528747 -0.003368527689957004
0.054527547270787957 0.010176371798522941 -0.003237155686538937
0.054388255467016325 0.010073990929765061 -0.003333509260953757
0.054433026390056975 0.010202833610619147 -0.003471352450670862
0.053115690895123274 0.011486351940590963 -0.004984046046931742
0.052697366560661249 0.011638139613923661 -0.004951242351200725
0.052716660774553947 0.011609718154667539 -0.005373071644027731
0.053157219168265546 0.011464967220729197 -0.005394671098930452
0.053352531085835118 0.012462593591152489 -0.004417308040555532
0.052960926270940935 0.012739066501656562 -0.004449371025182951
0.052822433832976343 0.012263512047653550 -0.004493838443839459
0.053224800002251806 0.012037105965300877 -0.004481093688008067
0.053473053203112561 0.012802981724451027 -0.004754040783360986
0.053066199044791776 0.013089791346802592 -0.004808573940027553
0.052451031609404002 0.012951278036967341 -0.004552659149811180
0.051743504831861915 0.013197017227492934 -0.004710785964706257
0.051664996435338409 0.012742185812212689 -0.004813399569886793
0.052326070427399125 0.012538891154693763 -0.004600184560184907
0.051740415285239039 0.012468467488370811 -0.005915465748122728
0.051576322619924946 0.012148044466039494 -0.005895123724632734
0.052739366451692894 0.011906654995269463 -0.004689761133186888
0.053155670721746796 0.011690365404780677 -0.004695134459974894
0.052434680849498261 0.012235134201695074 -0.005833448183000665
0.052954192587474705 0.012119532879856261 -0.005777038884572373
0.052828199768403618 0.011761979237450253 -0.005690089832981199
0.052304119326894556 0.011904556070312908 -0.005767904264641723
0.051498195312860137 0.012014327666388516 -0.005568523108615006
0.051510811797411973 0.012042644688342961 -0.005123635949113692
0.051600907937355479 0.012326662101981190 -0.004881109965717724
0.052558264368754715 0.012687387023672066 -0.005688376631878377
0.051876244398185299 0.012921129384306403 -0.005734798913087838
0.051883567583925747 0.013362341769814228 -0.005380931815688108
0.052612806415314697 0.013058672378875690 -0.005295087385434158
0.052248967799020191 0.012106017281394012 -0.004774774239634413
0.052208893909561183 0.011751064305593084 -0.005436789110332443
0.052206692385272452 0.011757256491362212 -0.004984418421717716
0.052533792638265374 0.013333558536644800 -0.004895638451872171
0.053102366413137335 0.012874928436524893 -0.005249066506762889
0.053931535623192424 0.012110262022574548 -0.005456085615795420
0.053846114875326451 0.011765068254466550 -0.005717173601349183
0.053394828409615409 0.011983355742236612 -0.005774730584822025
0.053483840603989495 0.012335855684214440 -0.005547383425657885
0.053075406828999756 0.012491388159012445 -0.005622486996702483
0.053504178305545699 0.012656954990515772 -0.005169608169442824
0.053622031260528696 0.011231623980331135 -0.005400473389179965
0.053576112505473485 0.011245803896135800 -0.004986826692191478
0.053617474216754932 0.011418828165662918 -0.004692027070813215
0.051815099212063072 0.013639046499564097 -0.005000093035302059
0.053688681104672557 0.011736517924159036 -0.004520926583109659
0.053809812180227887 0.012170137240173070 -0.004396780763328881
0.053250878709077104 0.011607233830271723 -0.005718978759837418
0.053702508741083142 0.011398170281701465 -0.005705842902540829
0.053953861192192393 0.012370309657469195 -0.005093932964128919
0.053910373647665287 0.012501182083852425 -0.004703944283509081
0.054331536101280706 0.012208808993119361 -0.004700524550111674
0.054346506634427992 0.012131649137807005 -0.005098975923049668
0.054259742053543246 0.011938731177188225 -0.004398866670820015
0.054101470244726800 0.011544180548451499 -0.004523200924839177
0.053995012625064120 0.011253069028212234 -0.004700267822767256
0.054320278142243668 0.011856909740032161 -0.005451459033418270
0.054223883693016478 0.011580324671849676 -0.005701564324088168
0.054059166201113930 0.011286991239419590 -0.005684276243596426
0.054692503001700803 0.011639975402160916 -0.005478635270051085
0.054788425334767125 0.011895204836416748 -0.005123355144759037
0.055256713376634160 0.011159980275540630 -0.004377231934508953
0.055436919935035661 0.011392952042584219 -0.004351724061498054
0.055170170745245786 0.011598604037303039 -0.004403456421318305
0.055025651914526401 0.011474197787944207 -0.004322102218512903
0.054990056885020608 0.011793825115842252 -0.004470076376314236
0.054734390145071248 0.011768017982179087 -0.004391827703062590
0.055249966011558849 0.011850555776749159 -0.004664886472942344
0.054972829484726829 0.011910228194142124 -0.004692514402665733
0.055522457702603320 0.011580356407524453 -0.004615806763532760
0.055478022813134027 0.011623044790344388 -0.004955629937875222
0.055168037855027149 0.011738160825402803 -0.004969618189587027
0.054967992574373729 0.011843611438294368 -0.004958694405584171
0.055557933283563281 0.011043183944673641 -0.004501923461260524
0.055615935320812375 0.011228915657490100 -0.004430974724723752
0.054713356026621453 0.012055797797358913 -0.004706940995257143
0.054470760882074122 0.011431522530643456 -0.004530935030857784
0.054847460487957959 0.011190743663915559 -0.004506638421550164
0.055217282903935405 0.010937181675514239 -0.004554769319682921
0.055477451752959331 0.010830305309216016 -0.004672801635132590
0.054729594160487338 0.010896991382973386 -0.004753706385285130
0.055138426896959331 0.010700233409829856 -0.004762230337697905
0.055392043171177380 0.010668848525294492 -0.004886999529437362
0.054678327241977000 0.010725866246190973 -0.005059753742477694
0.055117693021848387 0.010596012630507299 -0.005048264293116859
0.054330050445886353 0.011149839665996548 -0.004750122118685024
0.054236428241066593 0.010978476896375378 -0.005046373886716480
0.055329913978261383 0.010585070183191284 -0.005065324740604497
0.055600668206295993 0.010950291896363254 -0.004893867757798284
0.055678105213382220 0.011156979758366501 -0.004712816754641030
0.055726582054929079 0.011371346835538441 -0.004592695649722670
0.055104220054778816 0.011634133239445222 -0.005189956329490571
0.055420345887779242 0.011451744819087097 -0.005165966988482856
0.055078471132867068 0.011430617224990121 -0.005457012058617648
0.055405763795680352 0.011228543135932490 -0.005375179549843160
0.055705907367297483 0.011522878593653505 -0.004921790498123883
0.055648258700630122 0.011316367983769183 -0.005022679487255294
0.053924596288599379 0.011108878586995849 -0.005008199355769502
0.053948239925043412 0.011117384242475345 -0.005391109050893340
0.054263758391364832 0.011012894573509312 -0.005418246739962078
0.054706387215425561 0.010824723861926422 -0.005425599983483561
0.054387779362115460 0.011227572973227684 -0.005687716112748340
0.054575837073382504 0.011468110161892243 -0.005705410675892323
0.054968659820759380 0.011248422002620672 -0.005644771156273653
0.054818615522433556 0.011031381866660731 -0.005673472344941800
0.055333938176121263 0.011027624509104628 -0.005521766121832603
0.055209035075966903 0.010852951471215637 -0.005555232610305034
0.055133284553617351 0.010626658240990914 -0.005393576983015898
0.055496699729060184 0.010905232487295939 -0.005337397923549601
0.055578646849863286 0.011107296714912040 -0.005180831372992041
0.055492321557307871 0.010759636099592153 -0.005109674789670345
0.055380369518788206 0.010634875999261682 -0.005262434167100536
0.055389007301693736 0.010775568612408389 -0.005435987867916836
0.052920676825547810 0.012045358807826000 -0.006290118438137464
0.052502028166784953 0.012151794284551846 -0.006343427017559240
0.052385754193416796 0.012052152389097915 -0.006676425923455394
0.052806499250549352 0.011980127137246718 -0.006639473203740786
0.053197343048313903 0.012853959578993795 -0.006014802285034614
0.052773812471153939 0.013042827951891583 -0.006056799950748191
0.052724172431956415 0.012744840519891469 -0.006036676320340328
0.053138669504281436 0.012618210601357977 -0.005975812024508383
0.053197054634908099 0.013026809257335516 -0.006303297452636306
0.052749344031727048 0.013224945657565981 -0.006371983340029905
0.052317328233532044 0.013143571254692222 -0.006095913331381554
0.051752232262805759 0.013277177133175668 -0.006176105271637806
0.051741268223630017 0.012929052542821843 -0.006182952701013438
0.052293411180183165 0.012806502021798387 -0.006083410991862316
0.052641255812472414 0.012414151885716556 -0.006169630920505034
0.053047621942554177 0.012289888854316519 -0.006101669868573727
0.051918433354996373 0.012573053556584187 -0.007209735738200261
0.052480202209508518 0.012477377789945673 -0.007133013136270950
0.052382381685147653 0.012194340488243343 -0.006993324876339729
0.051840077023910545 0.012282265909611781 -0.007090100143847707
0.051222924453017869 0.012349948524760354 -0.006824793999319844
0.051401163108155033 0.012378623047961477 -0.006466028571346556
0.051586940760404904 0.012601739128033021 -0.006295594655592040
0.052079538741180688 0.012948363503012013 -0.007159833029537903
0.051354160813173032 0.013105918778982940 -0.007203267834706796
0.051523466383662626 0.013435116972931331 -0.006942938149785625
0.052203951331900818 0.013284250636178030 -0.006846967240900331
0.052164082597045122 0.012500880720465396 -0.006246139786297282
0.051896311593523876 0.012124151068929338 -0.006747328055089412
0.052038324181560736 0.012193205338579750 -0.006396053611025372
0.052269215414236313 0.013349084906591055 -0.006438693189490732
0.052693660740002340 0.013141608034483346 -0.006770358847430625
0.053614942703449443 0.012528918214347484 -0.006832480875763438
0.053510907046854017 0.012279491776179950 -0.006948785180609920
0.052943462671155864 0.012406783910003603 -0.007067072909889702
0.053081892930821120 0.012736242387611266 -0.006980126245681312
0.052602258305053926 0.012854281617569765 -0.007111134933378712
0.053153474990097510 0.012959645376129064 -0.006671158565282876
0.053335295383585189 0.011876130254593689 -0.006582839561079148
0.053380748259827394 0.011885806347144586 -0.006265967012284913
0.053504015754983293 0.012093781601388078 -0.006061522502015287
0.051684009640538146 0.013527010374131987 -0.006512675078811972
0.051213991392186110 0.012735025789543490 -0.007269890016223123
0.053618137714209001 0.012340030454320720 -0.005942102897351212
0.053691827190237157 0.012597677002572709 -0.005937893325893736
0.052839318800101044 0.012134377690486593 -0.006931669864894198
0.053384060986206197 0.011989571581973259 -0.006872761134443774
0.053673662940787056 0.012746571652089669 -0.006527114402608176
0.053700663545981617 0.012769273601256336 -0.006203309657467061
0.054131102789279871 0.012602055920649356 -0.006164578735537167
0.054113306180848718 0.012565789657507827 -0.006514086961896317
0.054142743242901754 0.012413840671948801 -0.005885061601668725
0.054047868102767252 0.012129798099698868 -0.005925307077211964
0.053912278757242027 0.011901950845955701 -0.006060805099283671
0.054038759241280009 0.012359814005175792 -0.006786519174808261
0.053954672126401357 0.012140431481113642 -0.006904353737056022
0.053795496797660228 0.011914661510488084 -0.006829671216908374
0.054381668301427634 0.012218490420558880 -0.006792686615155467
0.054509556479400548 0.012399624931470723 -0.006504440464460292
0.055127390305862722 0.011742793116573178 -0.005861834230761451
0.055218879588865462 0.011941878904064432 -0.005891279578268454
0.054908290664064129 0.012008209536299221 -0.005939685770858388
0.054838317753109260 0.011911356884128269 -0.005844164886562129
0.054722133376637866 0.012134602218314222 -0.005959072722157942
0.054509187065908279 0.012193580628414413 -0.005879912666344220
0.054943115955706827 0.012162771777783691 -0.006128996334908010
0.054690461671963078 0.012321437806907648 -0.006143936329851298
0.055210965703859700 0.012052946544816253 -0.006122200678169112
0.055199449369622580 0.012082511890329398 -0.006385294344263800
0.054898868949351885 0.012214503623139555 -0.006394210497413890
0.054671633716295971 0.012320928987047014 -0.006374992202775001
0.055371516620641520 0.011685333218411949 -0.005955829168125445
0.055361548942698867 0.011804293939593792 -0.005958818610394333
0.054450369263146635 0.012423003655522966 -0.006163840489969491
0.054311681657157315 0.011941210931226340 -0.005933459204538949
0.054677205140963685 0.011729044014561468 -0.005924684397902497
0.055019044600930593 0.011557905811429955 -0.005957151423218543
0.055273102956038586 0.011475842405275466 -0.006081625378598722
0.054514957769330179 0.011569031941035014 -0.006107300098960206
0.054862207546705025 0.011429621844917070 -0.006125939887946433
0.055110281439550310 0.011303882275469955 -0.006241303099671659
0.054396977498769657 0.011479308285660400 -0.006306528099783278
0.054756189605052491 0.011357860905478663 -0.006330702592011378
0.054156578341476455 0.011741352302298939 -0.006106785827987174
0.054024523341708222 0.011623664700476988 -0.006312609272703506
0.054978076087314483 0.011312696970251779 -0.006356712011367463
0.055362532632666488 0.011538089475156789 -0.006359480335575735
0.055438470720060327 0.011744958680019534 -0.006207015840419176
0.055403175308847627 0.011897659059036406 -0.006103949058065826
0.054748254161876786 0.012144554216808566 -0.006610587703529690
0.055058374644928638 0.011976517916557223 -0.006617032689976008
0.054689558547904228 0.012066046910883595 -0.006797478476789090
0.055031529463137656 0.011888330125841845 -0.006747400886464553
0.055405483319794530 0.012002703619155867 -0.006341134941352897
0.055388145341960945 0.011887129497672970 -0.006460716835970645
0.053767507438591579 0.011802764312064480 -0.006260999270378984
0.053718585014000869 0.011807174249072207 -0.006550950655473827
0.054048822956016103 0.011695834483138370 -0.006549534189065381
0.054458669179079842 0.011557752008299919 -0.006556354263707573
0.054108451908797414 0.011863683302428216 -0.006804874815917163
0.054255785669529120 0.012051505209316851 -0.006876717713940905
0.054671631839802774 0.011902762382468733 -0.006853932898442913
0.054496127609632253 0.011778670348982102 -0.006780076841650756
0.054922295482875527 0.011743583791985594 -0.006810662081719072
0.054832556574939691 0.011615399970893619 -0.006748640435605927
0.054754718383483489 0.011430353328883097 -0.006564564254307102
0.055174963487506501 0.011578635860368672 -0.006691601043525888
0.055301257349529787 0.011746160276964230 -0.006615287021037686
0.055275890631900033 0.011425646233885672 -0.006446372535372967
0.055080710963398373 0.011400358707498866 -0.006501160889816760
0.055038951059528572 0.011509752887966020 -0.006682737908585997
0.051138879693535443 0.012497110964872962 -0.007155407846794018
0.051830283704174786 0.012809868124357098 -0.008691659311489347
0.051492973217164124 0.012848970031349029 -0.008603887919689926
0.051402052446909798 0.012791958796558041 -0.008813898716144750
0.051732593941641321 0.012761051889081516 -0.008900059059070584
0.052100841613456496 0.013507011055233539 -0.008517955651895724
0.051703480671107097 0.013573873418155443 -0.008418376152316972
0.051700814557187509 0.013317072752087074 -0.008346043245185033
0.052069977262259259 0.013249926884117635 -0.008456122763703638
0.051990190985011051 0.013601446989521785 -0.008776143704748754
0.051580845323069002 0.013712658635934899 -0.008714525115124151
0.051214650127840718 0.013600077259767883 -0.008320850447214621
0.050526869833058548 0.013649238144509504 -0.008119659057852027
0.050691585165105260 0.013345923301844309 -0.008019857596323869
0.051269962971488919 0.013328768127672950 -0.008228693540126033
0.049643804388384692 0.013084573019882612 -0.008949863564086651
0.050135663143829425 0.013063617575126923 -0.009098752996622411
0.050246746971875651 0.012859834522704276 -0.008896566387454202
0.049661706597708709 0.012794544675733736 -0.008731607010047535
0.051607650525732900 0.013051449510366481 -0.008445025327259714
0.051954493519743371 0.013001664027874829 -0.008553447357201784
0.050789081142564883 0.013032991039756634 -0.009189055037143149
0.051282627826581391 0.013045547208009198 -0.009228557472308403
0.051333600154741907 0.012876822328985413 -0.009046510856841765
0.050874839095950079 0.012851902355643378 -0.008996108300182866
0.049849778390515818 0.012743505699817052 -0.008432073009995454
0.050390411705241764 0.012820600611902339 -0.008623973356463316
0.050475416291484387 0.012842934868689993 -0.008320529453429662
0.049990897216415503 0.012750457175449214 -0.008062348371185179
0.050611896644220264 0.013017925453822668 -0.008111265526497994
0.050750186349408283 0.013334871689590071 -0.009224066655179483
0.050098844804698207 0.013370490008947305 -0.009123914356708191
0.050126613098660726 0.013659005937828294 -0.008878534707150582
0.050898180351723145 0.013634821683834744 -0.008981305027047875
0.051181174995658531 0.013049513829363849 -0.008324442327706669
0.051000526167877251 0.012810191027220008 -0.008758505586394440
0.051077522067910962 0.012841737046760280 -0.008512587181205258
0.051022284553114514 0.013746854467464995 -0.008615233378520227
0.051435215264938008 0.013581517722157965 -0.009023836159513118
0.052131537472679845 0.013143597390010755 -0.009324029654847540
0.052070310969695575 0.012942356730023355 -0.009321349862795288
0.051671198633130619 0.013007936485894090 -0.009289485642415387
0.051713824935052152 0.013263000975969030 -0.009301959102834016
0.051279835604074432 0.013314354371240037 -0.009272198178949474
0.051881365868438445 0.013467042082066566 -0.009062347245863888
0.052030272807593279 0.012674343535073221 -0.008992913169639403
0.052201359976501077 0.012723229316458484 -0.008782103328596354
0.052322841806194974 0.012880977727215040 -0.008635891392465770
0.050239726971162954 0.013798284192455915 -0.008448419405147191
0.052436030053085662 0.013102002815148717 -0.008563244667273224
0.052474703566105306 0.013331792228391596 -0.008608525795495607
0.051673739117424115 0.012842281213661802 -0.009125932857996247
0.052034361260489846 0.012786889356233197 -0.009179457049999593
0.052274811645459135 0.013337702404001046 -0.009106394996837608
0.052380038559880451 0.013455159829375601 -0.008843598700589627
0.052746024447728801 0.013357321818527836 -0.008911954770524338
0.052636605580200613 0.013262677446136103 -0.009213480974393033
0.052822778847436989 0.013235423243091958 -0.008690550035356607
0.052788451211026918 0.013015451697001839 -0.008639596677768015
0.052560868928782693 0.012766035758318691 -0.008757223533940720
0.052444259432627940 0.013051984068706331 -0.009399883518992600
0.052363111794683434 0.012874569978867052 -0.009376539092305528
0.052334862126275569 0.012732531468291959 -0.009245671250561140
0.052767885878974970 0.012966155682308167 -0.009478048539713315
0.052990902146786756 0.013139932689357385 -0.009312176137917592
0.053581592873050123 0.012812693603633305 -0.008904156234950399
0.053619377190264585 0.012949339022038844 -0.008963167384657673
0.053445479704313584 0.012982439245862305 -0.008933990681860573
0.053368381668014608 0.012936323563136223 -0.008808273611726371
0.053269431264482643 0.013127258279830717 -0.008885267973340709
0.053143166961036978 0.013114885221983461 -0.008781175959895549
0.053408918814223716 0.013115217335162136 -0.009073129245754210
0.053210814954393212 0.013189581074079802 -0.009029884137541461
0.053640920221484520 0.013041193828510675 -0.009143308234924898
0.053533417945099054 0.012940731203002240 -0.009354918012915572
0.053327388133296551 0.013039001132803438 -0.009298492423777296
0.053181549635182040 0.013139126962520845 -0.009221309957039608
0.053779353510322182 0.012729275883727090 -0.009042893701720336
0.053790079578584921 0.012889171023621779 -0.009035670538027476
0.053036209690416163 0.013266412511069451 -0.008984766936516732
0.053020773628557769 0.012916932735622231 -0.008722670694302442
0.053293585617726583 0.012788761755727912 -0.008785555096313130
0.053555884561088833 0.012632678339031079 -0.008921991597870825
0.053726572786649267 0.012537675301753070 -0.009112285800323552
0.053106292488610415 0.012627481931070847 -0.008876912564884832
0.053374900653576335 0.012487915876298657 -0.009005126265471626
0.053573376864265283 0.012432964256010372 -0.009166635855006584
0.052961687977816842 0.012522787220434624 -0.008986794030686890
0.053233137725649443 0.012430414957636117 -0.009087127073751538
0.052873264540216985 0.012759050964703766 -0.008793314840821458
0.052667474814676998 0.012618472652269801 -0.008930546432424658
0.053377234843726501 0.012383285767808182 -0.009179969019538277
0.053714885312917363 0.012577333749257427 -0.009303470506686222
0.053810385788447400 0.012741568146620669 -0.009270365637585924
0.053823551750797768 0.012956359502878849 -0.009211592846625627
0.053221416365244606 0.012959713863696555 -0.009437300801433131
0.053460837651424120 0.012827928545448161 -0.009482073738701873
0.053057368821038599 0.012826954056281099 -0.009525776368178102
0.053368798951376584 0.012673696127088973 -0.009535372839811682
0.053704201051356551 0.012895600438953048 -0.009375224220014510
0.053672322647939544 0.012768038619680410 -0.009456553952153687
0.052461807130353769 0.012686433124305688 -0.008877702943494286
0.052342973173585154 0.012664165541389449 -0.009040128675844429
0.052576062648439975 0.012599475778181586 -0.009092259642767260
0.052884451610805516 0.012497300993368668 -0.009124665791917057
0.052563408587866518 0.012668092243959223 -0.009286063532837710
0.052636440848058720 0.012793693329783664 -0.009442607436252429
0.052944700101164539 0.012694088041177432 -0.009472708606378381
0.052880148614101632 0.012565017369485447 -0.009329598302192630
0.053253638928786387 0.012551264054934435 -0.009487303874278961
0.053207933062251196 0.012459385819667391 -0.009363595673206047
0.053196661850615869 0.012424454704533388 -0.009198319791928995
0.053493377602362654 0.012484700315786145 -0.009414715167555343
0.053597534057830395 0.012596497426620770 -0.009464995199265597
0.053582183303736777 0.012458698799075726 -0.009293963467920736
0.053429511922401002 0.012405497092526578 -0.009259640028619022
0.053399920152513498 0.012425244773550385 -0.009356820666559127
0.049607756026052267 0.013333259796548768 -0.008979338552491207
0.048950797214187290 0.013543057647779260 -0.000269291594019703
0.049173171976335528 0.013363987638304500 -0.000684825091738039
0.049088569655423943 0.012549113604249691 -0.000649758157287787
0.048806617125932115 0.012149911658344585 -0.000329285853159922
0.048496629095607681 0.012036738476223979 0.000128126796527250
0.048327688000843985 0.012356328941236647 0.000469554593739378
0.048223092220265273 0.012760855203621907 0.000697417744860285
0.049255099673431016 0.012987057075654127 -0.000777132452160599
0.048606793685975432 0.013506453854516716 0.000309687035628976
0.048345401333040182 0.013254993742786238 0.000690790856251678
0.048882939266144343 0.013421955663270398 0.001046664304436119
0.049103942063271219 0.013738292341475569 0.000657547041284155
0.048872284091262222 0.012983546984757064 0.001090113965367383
0.048905847439497864 0.012537339882393009 0.000778319045100014
0.048972920989736379 0.012265657563325988 0.000417596738730433
0.049346370606764237 0.013748662883861033 -0.000006932431913229
0.049510716780131185 0.013510354190221228 -0.000386042821131214
0.049546954820065353 0.013107443315009272 -0.000462739482909747
0.049671774124449036 0.013973169449689527 0.000398765037177007
0.049528298855232133 0.014033473396137927 0.001042728601519732
0.049880469063373345 0.013235364061540947 0.001847414892383592
0.049870502607665228 0.013551364140932935 0.001958751304485188
0.049637974481084417 0.013429322665967599 0.001844139487620653
0.049613854065152355 0.013142413571870853 0.001729622772676858
0.049457182395900627 0.013437990981072935 0.001797915140709160
0.049273215390914490 0.013151333614569733 0.001550774385446450
0.049721061350955761 0.013883269884234689 0.001821307174365953
0.049509819676294628 0.013792343786075590 0.001713897427153300
0.049830443981888191 0.014317369452555500 0.001571002456416204
0.049636375140382764 0.014132476734503527 0.001528034234788540
0.049986674869299835 0.013981608742141449 0.001940782043743254
0.050103057283730545 0.013676274921320687 0.001991455511465094
0.050198141893450024 0.013964158028045130 0.001960942168291787
0.050172480758283580 0.013500397575703820 0.001890862945801180
0.049287530756634571 0.013607751531803705 0.001444002754054867
0.049320811593031290 0.012702784986116095 0.001164901981362040
0.049627124843241256 0.012847330440548232 0.001381846366127055
0.049942794810936823 0.013059679470201719 0.001519919829010591
0.050257563899645093 0.013383879264752123 0.001588449542605666
0.049834263020763596 0.012700206585932711 0.001012815937868965
0.050061353674785307 0.013003199115574010 0.001142086252796940
0.050266178363475009 0.013330481463285661 0.001252338155321336
0.049846869342513506 0.012652892901128901 0.000556265656480847
0.050118129939875154 0.013059432572298860 0.000835575597524166
0.049300909032452690 0.012349371480729954 0.000641551216416198
0.049457003159047157 0.012416808298930873 0.000236382935272805
0.050313917500520965 0.013312563153199680 0.001030311474303146
0.050424877864996810 0.013794709663085773 0.001541347439427363
0.050375689905571772 0.013907350787308098 0.001851033917737631
0.049945219892922867 0.014363542105972920 0.001181724460258924
0.050085690674332987 0.014329703908120411 0.001759176640749015
0.050222345636119749 0.014386522143445416 0.001420676066474511
0.050009123822211961 0.014159529649824809 0.000729716017449857
0.050289363079210031 0.014201360284426437 0.001059953065398859
0.050228080046044711 0.014219187242247387 0.001837209149472055
0.050359353551375059 0.014232141889224182 0.001645546918956993
0.049145974768033382 0.012335267972518613 -0.000021074142684613
0.049430897829677585 0.012664152732837670 -0.000339822217239333
0.049743999329699466 0.012772047309384584 -0.000112572608827591
0.050090789421576305 0.013036622396792397 0.000289924682285847
0.049835083917029406 0.013239507807541979 -0.000208393493541867
0.049806487823629161 0.013706974943927426 -0.000030020985898756
0.050100257010633302 0.013882946603710354 0.000415796550826983
0.050101129770867399 0.013459609571637332 0.000255393711234232
0.050308770249500527 0.013914015365363179 0.000784509307792646
0.050329911894300819 0.013613689707725240 0.000630634799519871
0.050267676389198199 0.013321724840063075 0.000700437848689416
0.050427312981788860 0.013857549307791548 0.001068380877122364
0.050429162405302166 0.014074921014800559 0.001346125402799028
0.050390414661813439 0.013633818028744070 0.001250273103995433
0.050338518350400305 0.013515615300990290 0.000995240532163227
0.050376403506463295 0.013687084179594520 0.000903952363506178
0.049127464319009148 0.012394500521794827 -0.008518769248107192
0.049297117375698578 0.012382693256494413 -0.008169230186721938
0.048728922633993629 0.011994592899824260 -0.007969391933203914
0.048169866080334592 0.011488726934316388 -0.007798499616425992
0.047522782032291745 0.011329595266644597 -0.008109347875829757
0.048280503385354348 0.011582193305153669 -0.007286383042408679
0.048835079814316409 0.012102185134139498 -0.007525694449078880
0.049500629453623435 0.012415816639256011 -0.007669780433715134
0.047944115024283557 0.011315859164374392 -0.006666561078437308
0.002003463751869133 0.026501030987456591 0.003948615579000772
0.002046445615713606 0.026476356413575153 0.003914858136571661
0.002163843547728529 0.026243271780167925 0.003890387814341433
0.002096749792225035 0.026294667894736584 0.003929236982333369
0.001988206471861920 0.026351737136899950 0.003909402459144661
0.001894387903121908 0.026427988382423852 0.003875626788738784
0.001868307941963550 0.026712545483843587 0.003828162039381997
0.001929801358443413 0.026654358364462914 0.003912522805677722
0.001641705083418657 0.026735253532905047 0.003862372012076898
0.001718037309410535 0.026735381155638244 0.003764159120977691
0.001667829808429867 0.026699665929807746 0.003915143750314330
0.001794099545378667 0.026577229932445521 0.003893399778969482
0.001727841135040525 0.026647407205944079 0.003878966555715252
0.002164880466800567 0.026344580851656019 0.003798101890074810
0.002186072361840760 0.026281760325802657 0.003756057747870500
0.002107831622677755 0.026394824484849422 0.003866108192178066
0.001850247359001760 0.026505991107420489 0.003881821469427349
0.002206413727330241 0.026213501977423677 0.003756931785650081
0.002198372283743275 0.026195233032793946 0.003811316380411557
0.001814160051399830 0.026751206120646288 0.003787837284013661
0.002037122843335289 0.026411488243683747 0.003916829617245659
0.001922721052281181 0.026511765114882482 0.003866179010319539
0.001880397986421165 0.026669916603508096 0.003816958397682797
0.001954153445677672 0.026582542266765777 0.003911714096899491
0.001816016168931035 0.026661220972536637 0.003821434580523254
0.001788112224744333 0.026668637416147063 0.003835946341716807
0.002117493833416369 0.026355230832597342 0.003949306193614100
0.001865892570663712 0.026601770418788469 0.003824689551538676
0.002032557214749881 0.026517868806299673 0.003911976145369935
0.001778383491282103 0.026697957068684504 0.003831945716463428
0.001814575668719054 0.026725405300727909 0.003798480307062917
0.002154475078472870 0.026287268946549949 0.003749474212284430
0.002169521422494994 0.026278138381527639 0.003760479517128371
0.001532170369095793 0.015987471619390060 0.005348333528929538
0.001427871045098080 0.015734680989804111 0.005156760926402330
0.002079174848556971 0.026443147008384300 0.003895299309894777
0.002158988973412424 0.026279030861824454 0.003789345126942524
0.002128692122311189 0.026331218600939128 0.003847075401443287
0.002117011221388976 0.026381029229540942 0.003840896010798618
0.002150350487351709 0.026333455100075228 0.003790204729794895
0.018691924638421741 0.010913254421896485 0.000907640478942491
0.018891094092151402 0.010061108443474591 0.001134532299406549
0.019065932386828330 0.012786064293308901 -0.001961057633251069
0.019219577361197383 0.012994219486622658 -0.003160524833410034
0.004231643688265955 -0.005683126520483590 0.012800202024706877
0.008578672485775091 -0.002285432664043097 -0.006337693945313842
0.008801466999809654 -0.001082378456597004 -0.006447525265786434
0.002796654421103033 -0.000808425609832074 -0.008036581380897932
0.004050535771504158 -0.001202009627966580 -0.008439458619431189
0.011920005144234570 -0.001806658348452477 0.003905488148639061
0.011751407831437180 -0.002910802725809158 0.003599312462816538
0.008593029556125200 -0.001768140803524208 0.009962360738192625
0.008208907299384352 -0.003490034144167679 0.009806696417112192
0.010580348584092004 -0.004283305062738569 0.005197184462674963
0.005787364947511513 -0.004414025373650740 -0.008286453632481663
0.005591580588261280 -0.003014037123333768 -0.008271208662525693
0.007289751785364941 -0.003130195963407130 -0.007744652315294270
0.007623444695462872 -0.004364689186367348 -0.008005595086037983
0.001777817863298580 -0.002592370031394590 -0.007877037342557446
0.001737053030382657 -0.000427701953237846 -0.007311788056018348
0.012777783521971849 -0.000815540489632278 0.001556611218109661
0.012733004945391001 -0.000959933845258724 -0.000991038122066497
0.011548474218910539 -0.000322213423165633 -0.005837465525152855
0.009919781597003187 0.000292013166407921 -0.007417155672601644
0.005988141040278974 0.002061792448490011 -0.008609138743317360
0.007934328613292220 0.001195255591545254 -0.008250812115832592
0.007087467034669184 -0.000250823550978992 0.011190249181218248
0.005524566371795575 0.001818386185150466 0.011416054292929320
0.012057212319578198 -0.000467161240026865 0.003940859824155370
0.000975470218584470 -0.000505892740455295 0.013400127094696198
0.002694925061100623 0.004639074547790128 -0.007142129516880385
0.003939286228995946 0.004150353086825920 -0.007844200098311840
0.012444211307588295 -0.000719331555667300 -0.003613066469634184
0.002434206391016972 0.013122647216954407 0.003143364745745194
0.002409571986910308 0.012172716603740402 0.002406197392030146
0.003692421510383302 0.012341109394079399 0.002702352445339567
0.003884545791665812 0.013161948220460733 0.003278231909236518
0.004907045899091578 0.012117779557101482 0.002635111219102093
0.005949752482551291 0.011928217432027162 0.002563343045765003
0.007012282758659008 0.011796683965269377 0.002529747956741036
0.010134366480246822 0.011252139524822003 0.002310948975888449
0.009127022837292194 0.011524996090351548 0.002477100900587520
0.011550538973179003 0.010199472024553020 0.001470522638092813
0.010996497756493752 0.010828469584311936 0.002077488443896458
0.010992892281488455 0.009723728330280137 0.000176095475668668
0.009996546560960858 0.009314632381593947 -0.001206422526863115
0.010061109897803037 0.008704668743848199 -0.002132534379474373
0.010665542609606176 0.008978787931359686 -0.001938670142526969
0.009026208890702103 0.009038818292221473 -0.001197753387565595
0.009400427583778036 0.009464313592727730 -0.000293016373119819
0.009779919854869389 0.010036596356948570 0.000651487798989288
0.001256269439872982 0.009214565157173005 0.001567521404314415
0.001280983800417073 0.007913398034011166 0.003692088661591222
0.001382536577992683 0.016076960254015879 0.005498277003207500
0.031401084295996570 0.010102137247358962 -0.005727696979377406
0.040638489485828495 0.012740099143166757 -0.002574591700610903
0.000576036257589102 0.016209722195158885 -0.005388059699453679
-0.000151270863539143 0.016020191514937457 -0.004671588675842442
-0.000479763723879315 0.014768968902093917 -0.004920429338670853
-0.000526933542793295 0.015513569667915877 -0.004404296308232623
0.004420534703422506 0.017252865047225441 -0.003535412254736477
0.003542356083884892 0.016612228422529782 -0.004964453046766887
0.002058198410305385 0.016152527361010329 -0.005720254753021823
0.001143101553197335 0.015840417302676841 -0.006069764248242163
0.011575864433329060 0.001456461951466781 0.006089012620392136
0.000578595937485172 0.013766668777387293 -0.007154893335810799
0.001092429475078149 0.014943635624814697 -0.006883466680703566
0.002168464264442513 0.015337708647153241 -0.006517846827561329
0.003852896296294974 0.015823438648844584 -0.005923388396457937
0.005577762864052707 0.016364994996013075 -0.004468247272817965
0.007413546402546836 0.016693543701542524 -0.004376414037482973
0.009428783779506674 0.015315988905571122 -0.005430985242142618
0.010169119576762803 0.015393265168229562 -0.005321764127199948
0.010256793989615234 0.016406079154690993 -0.003996513295703602
0.011080607739404542 0.016057852738742696 -0.003941904154699624
0.011135009006369320 0.015285283942692778 -0.005442080694698031
0.017505053918444577 0.012754586028680273 -0.003994896557209835
0.018410155131453894 0.012441217338299823 -0.004063399622007574
0.018928274318130295 0.011833814091722048 -0.004283386984520411
0.019101521556452030 0.011171392444951184 -0.004606562475754437
0.018972222561246532 0.010396576519070090 -0.005107334007051161
0.018554332286227108 0.009677964111930943 -0.005525585597952204
0.017999397417471495 0.009013303779101743 -0.005472375889567165
0.016106573233082913 0.007677911578906432 -0.005137467650514443
0.014877929059814159 0.007267238894505847 -0.005078873812531358
0.012416905950911543 0.006000178798613317 -0.007417441409227455
0.011999306953145618 0.005680420685416413 -0.007883195512232684
0.008899922909701641 0.005244872887852423 -0.006928636292324247
0.009964195641234463 0.005049607870809855 -0.007285601141533173
0.008239222819989988 0.004618758430856241 -0.007140409445188791
0.003235101175721624 -0.010728821973045134 -0.005130957209655849
0.004484372007760883 -0.009790166641172302 -0.005943815561358188
0.005265456079727024 -0.009684869559165223 -0.005669913773821355
0.003547283674126983 -0.010775483163905369 -0.004504114021110366
0.001407144730785711 -0.007587968844515648 -0.008337081728900493
0.002909841398021632 -0.007503621535590165 -0.008833842575417399
0.006649334463432479 -0.009482034484975610 -0.001156742949255329
0.007162908233907395 -0.009523395409150167 -0.002833734177190730
0.006869708852840047 -0.009658084840992672 -0.004198792393035171
0.006140018992884091 -0.009691495770317382 -0.005085518736971685
0.005651053883118757 -0.010087391358348918 0.000533383728074098
0.001724123784643920 -0.013341139584186135 0.004588106937883891
0.002452881482541936 -0.012831447646062203 0.003950824875659493
-0.000080109768882037 -0.013897287545937404 0.005093344154334017
0.000445165349073669 -0.013665343525793952 0.005084316750341955
0.004568629757247591 -0.010773509122055635 0.001594443542094529
0.001032864223137877 -0.013565186946662729 0.004917686528672176
0.003118978950949283 -0.012298836324652763 0.003228352321211325
0.003835856210578324 -0.011529243813970323 0.002523584456857345
0.005718801203989722 -0.008525464953012676 -0.007394513491039691
0.004378749207499605 -0.008968599979344703 -0.007346188311604581
0.004559920900068242 -0.007340008832589809 -0.009184918860655200
0.001101094760176929 0.007180256960275267 -0.005985815496695536
0.001659951164968382 0.007330530939463054 -0.007568730932289650
0.002261402059765835 0.007485610087749539 -0.008724856114626887
0.002970653967556179 0.008530325634468205 -0.009182036067051889
0.004440304855866706 0.008795972509173794 -0.009054209646855027
0.004902328347593936 0.007746710893679589 -0.009212314512276937
0.003397670660816976 0.007504036551656358 -0.009159320921970266
0.007590763738165921 0.009852784754899117 -0.008422413938194130
0.009050765948948139 0.010484821736379270 -0.008433659865605719
0.009249277709193099 0.009376272290868622 -0.008558285258096071
0.008057992136703619 0.008629290529278790 -0.008802295929261999
0.010132021397343214 0.009920490009193574 -0.008122139956677817
0.010974925652637281 0.009773358418601809 -0.007648955208675077
0.011964569939226464 0.009443311119306625 -0.007146858092988513
0.013276223097813117 0.009245219068986283 -0.006948627863611077
0.013470559484778386 0.010871175557405782 -0.007784573132673129
0.012175591395733645 0.011069779185677751 -0.007948842969334987
0.007592925733367122 0.011113510367852060 -0.008168094542091154
0.005870310938921526 0.010425530832038451 -0.008186958669794677
0.000259269401460932 0.009912079701195177 -0.008088806537727238
0.000102250738159002 0.010106582221673949 -0.007191475175028919
0.011004310779254014 0.007696739009636258 -0.002695507105725150
0.011999041772608861 0.006443180526592718 -0.003365868439838309
0.012849223513623366 0.005485971830351487 -0.004403101760491549
0.012871822058308545 0.005031652031909290 -0.005521805802337178
0.012224095417088241 0.005008118587637165 -0.006395513906652188
0.011389290260182112 0.005092639658348384 -0.007011658927492789
0.010608397687498492 0.005387804052813050 -0.007481560429555711
0.011198840167096246 0.005514593867229834 -0.007857563323624290
0.009704308932813063 0.005613969597657138 -0.007920805037491544
0.010532828976293639 0.005868386753206243 -0.008400191060482462
0.008635700440071691 0.006228129724267082 -0.008314998078630802
0.007464332899798810 0.007089430194770635 -0.008750469746664912
0.006517701553756758 0.007994280134086387 -0.008939349709280902
0.005885719407265866 0.009228539206272566 -0.008616590305924944
0.002870917442274990 0.009659996788533395 -0.008904801364578392
0.004331364873507756 0.010023806529833718 -0.008588851213250726
0.001433090014815979 0.010688005539701792 -0.008662545113926060
0.001647068764280244 0.011819061285894515 -0.008256857898361180
0.001662170394887955 0.008601992839707513 -0.008753010847049925
0.001529967280857994 0.009702648743379404 -0.008781640373062819
0.003179974608284673 0.018441866761416417 -0.002795110547217856
0.002253553295797486 0.018023556987713883 -0.003448406557825477
0.016833862109069668 0.009694011408197286 -0.005550570755053565
0.017677175245188439 0.009769687345515142 -0.005468066035895077
0.017458281280408727 0.009222852305386270 -0.005527355952406316
0.016889902299551948 0.009314843770546229 -0.005592752106844098
0.018056624688095706 0.010320774018901540 -0.005246214475136392
0.017205578689451058 0.010542221936052197 -0.005210502555963163
0.018149957483775462 0.011011967756918557 -0.004949814947829916
0.016989834883999945 0.010256857802304542 -0.005452106409700488
0.018098111498656911 0.011500993305583981 -0.004748382518740787
0.017246873167126135 0.011284798168545076 -0.005196548590811064
0.017743862840405022 0.011997431100433796 -0.004692740524628916
0.017114554027770703 0.011722260273310778 -0.005219180731965470
0.016890845905945542 0.012020053176414785 -0.005153493860186303
0.017134884769035078 0.012356441645608894 -0.004731835257100757
0.014640396075355085 0.012164215621296236 -0.006746744651575928
0.015510719337835578 0.012005263430525107 -0.006027174954449363
0.016344991390265948 0.011963554650651955 -0.005518351444810050
0.014352111337427110 0.009222912280873061 -0.006433162654901313
0.015344241414985372 0.009604361997560247 -0.006064986614824296
0.016106541463974146 0.009949105585988544 -0.005734693063731841
0.016341825128878613 0.010437935489260138 -0.005748787280933395
0.015426389862559987 0.010116072506739184 -0.006266145996367978
0.014470128196126360 0.009900787367617870 -0.006918108414869930
0.000271186311803178 0.009178647766540553 -0.007613388535091617
0.000912556017046553 0.008775696429520514 -0.007986557093380021
0.010040508508799723 0.010684192344678465 -0.008050952114452413
0.010945460347092930 0.010642915202806030 -0.007881760164850685
0.011916173607594990 0.010394499135651068 -0.007772266060636500
0.013260754674265365 0.010070103238375060 -0.007560428693391858
0.011185224109646614 0.011417306324505759 -0.008129073021356551
0.010153093225235738 0.011580743767059658 -0.008110517379456211
0.009073487039418789 0.011560886089416321 -0.008278364718980550
0.000875084639477464 0.009876408969293173 -0.008524160008198705
0.000141092958708167 0.009516717999714512 -0.006795842610107001
0.013478837179894535 0.014895426946291737 0.002217992964689835
0.012595213394067549 0.015943586609828163 0.000910854270142053
0.012022548469998146 0.016557327972036073 -0.000762186043865553
0.011442184631466941 0.016427683793748423 -0.002354885551952114
-0.000731056761196873 0.017527286792160871 -0.002597859216032380
0.026780605753429016 0.008591625472442388 -0.003156211330667355
0.000537806115233242 0.005242208742824305 -0.003229640026365015
0.000718744011228958 0.005924568439669860 -0.003137057891555464
0.000734610198938865 0.002051836192212190 -0.005452397051724065
0.000628364712890337 0.004529098017175884 -0.003414133595725329
0.002769299767299817 -0.006195523796729716 -0.008474371254393221
0.001532302408424229 -0.006412662577939877 -0.008330491184288667
0.001650796261337388 -0.004706210296077806 -0.008113198126037688
0.000333182449565238 -0.010277047212049990 -0.005343354042183827
0.000338541408826679 -0.007666342943823873 -0.008171573582754351
0.000377755274551389 -0.004594666271108938 -0.007607204826994401
0.000556057381806324 -0.002484152379023770 -0.007612618970786892
0.001428298376936708 0.004897138775292850 -0.004820607806579339
0.000596538062836101 0.007329826149973916 -0.004350133785894426
0.000423851888856939 0.009610290026120918 -0.006409290585167749
0.000186089166573597 0.010292545687611144 -0.006951688565575544
0.000132189839636505 0.010459239153088787 -0.006761278879027497
0.006348736013694215 0.009932087955004405 0.001165981105908014
0.007107906227887073 0.010758958215244380 0.001771799991621224
0.006338579255119169 0.010902566405077044 0.001821602887703173
0.005830149291265635 0.010055829531227899 0.001174852346185698
0.007506589391224604 0.009905140472014984 0.001070421912159261
0.008727251546702300 0.010580353577503464 0.001548145787121411
0.007991240429566044 0.010693377763080663 0.001720560017096163
0.006943530459196627 0.009927974172995582 0.001082236679584342
0.009418599558591435 0.010295263264971394 0.001308351324033665
