VERSION .7
FIELDS x y z
SIZE 4 4 4
TYPE F F F
COUNT 1 1 1
WIDTH 737
HEIGHT 1
VIEWPOINT 0 0 0 1 0 0 0
POINTS 737
DATA ascii
-0.000367423232022574 -0.001374799502308930 -0.002320920113821841
-0.000247519382818936 -0.001229916767880462 -0.001840935672740839
-0.000451312430976019 -0.001089439767708012 -0.001974226453344360
-0.000502924846294829 -0.000784388400416751 -0.001620286895632685
-0.000222672438256801 -0.000956642222598760 -0.001594984662280127
-0.000527105874388653 -0.000737494611177799 -0.001638131370558729
-0.000564576936765468 -0.000972260187279462 -0.002086589019517726
-0.000550259090954857 -0.000948526705412135 -0.002123120423929784
-0.000473024221064713 -0.000702833372883778 -0.001667522139013970
0.000277583470280126 -0.001131243966117113 -0.001715509475399426
0.000199088558708782 -0.001148332652569079 -0.001687238542169939
0.000127188246197143 -0.000833608455017540 -0.001379893754656411
0.000237219810962723 -0.000775635183121959 -0.001498626541867669
-0.000380023050804649 -0.000556529395284412 -0.001161418220742170
-0.000609719285449164 -0.000387625112197602 -0.001167552590588395
-0.000103895892795091 -0.001705473227880070 -0.002379866681628258
-0.000150059842631738 -0.001762515742816617 -0.002442449998452775
-0.000565375604195996 -0.000352217123883282 -0.001240038459724513
-0.000491587075338435 -0.001209426055317801 -0.002337603173088225
-0.000495799445978457 -0.001175772354250670 -0.002252927216610826
-0.000165995652058522 -0.001307052716866512 -0.002272451323787330
-0.000059636474013371 -0.001461741253772730 -0.002231026263085438
0.000045153399851683 -0.002324174687243166 -0.004277889098659215
0.000032921611236865 -0.002271692299943871 -0.004250608213806434
0.000039868194162533 -0.002304033176211579 -0.004254997694440686
0.000038683243428543 -0.002303974635603362 -0.004222373454175445
0.000036960516105158 -0.002280083476691479 -0.004215104324359693
-0.000000096822344368 -0.002634706977464460 -0.004165773292177945
0.000057061194054103 -0.002620734056120018 -0.004072329474840824
0.000020104406317708 -0.002499969670252728 -0.004103316605013503
-0.000026184619140355 -0.002485354857657531 -0.004219342155194083
0.000042646479149542 -0.002236170697212613 -0.003991277398109561
-0.000047199962972565 -0.002215707743214118 -0.003920457515133259
-0.000018305186111311 -0.002253732479926710 -0.004031355414567663
0.000044074939502440 -0.002271766885185366 -0.004093359717430449
0.000061102434951604 -0.002295637058996951 -0.003969707356270276
0.000054490768217895 -0.002311347560823354 -0.003956775909368317
0.000055132451842264 -0.002306626727693280 -0.003928430533935106
-0.000067926159317708 -0.002186370070590138 -0.003860896941089258
-0.000105644513138089 -0.002192632847198456 -0.003773465854216416
-0.000060886559346029 -0.002150237761665420 -0.003583565633089115
0.000065326739417537 -0.002288630182678423 -0.003845207094020955
0.000089890477648984 -0.003222638123879695 -0.003307582876127652
0.000088702630709883 -0.003141028758750188 -0.003668727708464371
0.000087537311697979 -0.003163818615969726 -0.002937184884414498
0.000064262554507315 -0.002991677979392871 -0.002672658254669048
0.000080118577213765 -0.002536458015727683 -0.002240041581286704
0.000007722441302709 -0.002607370138127968 -0.002229281686568830
0.000015233706791731 -0.002375225005738420 -0.002087508805788257
0.000069818858286000 -0.002328483164074785 -0.002139154177532177
0.000034785213409809 -0.001644124621961575 -0.002127413796985064
-0.000395243750953857 -0.000940234039033985 -0.002102931544517997
-0.000411878378132499 -0.000699861824013803 -0.001834362193314298
0.000073121890502273 -0.002982587239533895 -0.003929123952057430
0.000036516196750030 -0.002815082795413087 -0.004111854256775178
0.000129770714078811 -0.002439639008495464 -0.003487697066933939
0.000006682349349789 -0.002211752343074982 -0.003863747557885870
0.000041584615081621 -0.002220421752322875 -0.003909430847654029
0.000046829920865822 -0.002256183477562690 -0.003983948897712390
0.000035708275127222 -0.002241955575748045 -0.003947498683912481
-0.000045694702009624 -0.002143692365635590 -0.003761885781425489
-0.000142129800546175 -0.002086343598382526 -0.003628258881289433
-0.000163165961682477 -0.002034479544753002 -0.003304189069852765
-0.000222080862597605 -0.001950792621676160 -0.003052626563200399
0.000265034685122231 -0.002578437041659115 -0.002475491825246425
0.000308613640986729 -0.002477860937942295 -0.002644857852276450
0.000106032656264132 -0.002724145291503562 -0.002419105799660450
0.000208274428972773 -0.002677489814104620 -0.002443428845592101
0.000280942597571058 -0.002377259954361580 -0.002682693658955770
0.000026510758998252 -0.002789353450958642 -0.002448160649195815
-0.000023058660028908 -0.002227989423669668 -0.004280467399341534
-0.000023733671079381 -0.002277229447085085 -0.004315297152741053
-0.000012830063822614 -0.002233563708155716 -0.004246662747300079
-0.000006327673724824 -0.001994587527058641 -0.003983416903249165
-0.000048291981529412 -0.001943789574398506 -0.003784095070286442
-0.000068534738074961 -0.001935121123495394 -0.003772267524214707
-0.000034743654511719 -0.001999138974951640 -0.003980883432677429
-0.000102211113532465 -0.001889567930957856 -0.002618934204586581
-0.000141726728944108 -0.001884999327160317 -0.002666206893391228
0.000188193173225776 -0.001527372950001758 -0.001856645513575981
0.000112541857764644 -0.001452712417856018 -0.001895245399360149
-0.000012440893950802 -0.002351898920223207 -0.004353571495520073
-0.000014467359205437 -0.002342838591450111 -0.004344372267059004
-0.000023104287888288 -0.002346926990995832 -0.004346797226813667
-0.000018926287503280 -0.002345931804859023 -0.004364620248559305
-0.000007142540082900 -0.002131166127957815 -0.004045388520415300
-0.000037932374323962 -0.002163880615400876 -0.004259282066128679
-0.000049432771212002 -0.002134404584952565 -0.004150013468782872
-0.000063125423508375 -0.002137574218000312 -0.004177791813132175
-0.000052918812110497 -0.002162018678419447 -0.004269352760968305
-0.000382079725403389 -0.001866666898842766 -0.002454554449851908
-0.000204934061755425 -0.001628310637346818 -0.002128960780772059
-0.000056760863533856 -0.001135377776529720 -0.001575531167491775
-0.000170858977383226 -0.001304097403100890 -0.001884511755085303
-0.000301229924154142 -0.001331898791369277 -0.002165831661366495
-0.000429431724442920 -0.001160123538759842 -0.002217182974801274
-0.000294014981711657 -0.001149815922804883 -0.002242199949390869
-0.000198811769053198 -0.001136182751723097 -0.002288802059366501
-0.000107575308986378 -0.001294089955926779 -0.002288548782813404
-0.000282751239825328 -0.001956121755045767 -0.002276261865297661
-0.000140174600566058 -0.001716088717812634 -0.001986067774154201
-0.000070773221846925 -0.001833764705360294 -0.001923303920236617
-0.000183022361736899 -0.001982748252149235 -0.002193500301660644
-0.000036194527990440 -0.002335902499637475 -0.004367191135171329
-0.000031804622954602 -0.002315364756612552 -0.004363540626889508
-0.000031335981449624 -0.002299869497597912 -0.004361717856981903
-0.000039266410656200 -0.002337288099127069 -0.004368784945936902
-0.000008996939477270 -0.002321283618741822 -0.004352061081063324
-0.000015380383971213 -0.002301024300266952 -0.004353241952765720
-0.000020096440267911 -0.002316364019217644 -0.004361440974166085
-0.000000664230331768 -0.002331944982092389 -0.004353454241092949
0.000004678506436296 -0.002344477487365825 -0.004367110715853349
-0.000026578557285461 -0.002367679000503904 -0.004381743027725266
-0.000036414054226593 -0.002402185064439352 -0.004387196788953001
-0.000006202795819498 -0.002364594125037823 -0.004375887534688446
-0.000033523354463144 -0.002347585871124896 -0.004357139705131565
-0.000036722182708366 -0.002333326029069344 -0.004352414032992649
-0.000028053962483580 -0.002339806037561256 -0.004346794068625015
-0.000014350546818264 -0.002336509453687626 -0.004348290977414806
-0.000021720692369215 -0.002365474047618394 -0.004371476686071971
-0.000014447239260108 -0.002361577041248479 -0.004363047625899588
-0.000003116867906374 -0.002417876355420686 -0.004408530530326044
0.000281811398643374 -0.001463482489391230 -0.001817169588938322
0.000079147875875249 -0.001830435621444926 -0.001849042703169616
-0.000002676350117225 -0.002105642305590908 -0.004019107948676944
0.000008968282033087 -0.002429090808330135 -0.004060395315361025
0.000058764581691614 -0.002266880467467208 -0.004064809970852274
0.000062380152107545 -0.002305980729092865 -0.004269306498780325
0.000043153721377766 -0.002290931638526927 -0.004260005033603884
0.000043228304722448 -0.002275721358345589 -0.004204441101879744
0.000052472023048690 -0.002283979185096401 -0.004185025411581284
0.000022539037844618 -0.002414530025581239 -0.004188598679072657
0.000046282256953926 -0.002397967474266492 -0.004270534466460353
-0.000011334405208187 -0.002422580466362233 -0.004309592678176687
0.000036771376448052 -0.002389152682477195 -0.004297783765956323
0.000039422694934387 -0.002355030246700592 -0.004286532972633232
0.000045439942480006 -0.002375170773271657 -0.004336359601326239
0.000008225411831051 -0.002412316115675643 -0.004365782041374822
0.000049321911864376 -0.002335264847934104 -0.003918486335156861
0.000048816775947293 -0.002332702254277772 -0.003961656050022114
0.000059192223435879 -0.002347025751304577 -0.004320077557027459
0.000045687910437698 -0.002325348692130567 -0.004286056603324314
0.000040200336508392 -0.002301848112516148 -0.004288112351698650
0.000062224931088186 -0.002323987924924378 -0.004312451682184934
0.000053208754615200 -0.002270690801031994 -0.004133914345388430
0.000070682949144351 -0.002289052649039589 -0.003901318973333684
0.000063177351936819 -0.002258556561033973 -0.004024943567751799
-0.000195405575012620 -0.001775910814956896 -0.002549307132446362
-0.000093387392160046 -0.001848096211164214 -0.002536015537919196
-0.000227958257155481 -0.001878116085294694 -0.002733404141389086
-0.000225817574147010 -0.001826239500902082 -0.002676948346303047
-0.000301994583785044 -0.001804779491674757 -0.002650469162621375
-0.000279300896953213 -0.001880521341913953 -0.002734754166357443
0.000184880998291965 -0.002182452807180706 -0.002825802749661878
0.000177920208615638 -0.002199885629041970 -0.002885712746604031
0.000205119298397893 -0.002255050804616403 -0.002896055960131548
0.000211662376129866 -0.002222354339263420 -0.002785040156625119
0.000166529936157203 -0.002247448471684668 -0.002981088280559971
0.000139023652218778 -0.002213103620602119 -0.002977560438497327
0.000136930306209709 -0.002222294828327337 -0.003030735415390584
0.000186405822713271 -0.002269934018005004 -0.003012790882783896
0.000143998560865308 -0.002275480281989111 -0.003115616706195220
0.000199218511021273 -0.002366379775402401 -0.003137888751015102
0.000226528736243097 -0.002360182415399717 -0.003000344820623470
0.000052020921656242 -0.002305569130692496 -0.003425898402148997
0.000133577202372478 -0.002354250855340737 -0.003278936127294290
0.000083004495781258 -0.002263712649592220 -0.003191563825155213
0.000035633867735679 -0.002218347706420770 -0.003257193120587016
-0.000169568948497226 -0.002027267683865140 -0.003073331809783076
-0.000232886394357594 -0.001966896970680475 -0.002885542762838896
-0.000264205049570483 -0.001754412656595725 -0.002594766673934860
0.000111758020868613 -0.002069838898880326 -0.002171468823277481
0.000166923011637879 -0.002029008354487812 -0.002261300022536559
0.000147284273251785 -0.001998923863985505 -0.002371872433798096
0.000089370334815065 -0.001993095600654547 -0.002470829897187706
0.000078545898788251 -0.002158765812922203 -0.002101159470585868
0.000072402958411475 -0.002123627246677805 -0.002076808620306294
-0.000013349382738755 -0.002205369710684424 -0.003412075383754490
-0.000049466125114640 -0.002172373501444298 -0.003239335977092949
0.000088570829785103 -0.001830770537819458 -0.002251125356892765
0.000084926267990864 -0.001846771258621290 -0.002150350736775360
0.000039146445904971 -0.001841892790811814 -0.002358164651615043
-0.000016268308659450 -0.001880063826151958 -0.002440657740160314
0.000056193626606706 -0.001948958493963917 -0.002071734742414213
-0.000011353573705692 -0.001880291125037773 -0.002044902936704542
-0.000013863465543225 -0.001627958027673695 -0.002093490067319738
-0.000134904909019009 -0.001976264519524177 -0.002889443492261353
-0.000157450719983535 -0.001922566185818973 -0.002826239750400806
-0.000205125868035403 -0.001938229350662408 -0.002818328817510138
-0.000164839360475416 -0.002001305916752720 -0.002927753057334330
-0.000104007993588165 -0.002092766916185159 -0.003160772897172757
-0.000103830645170924 -0.002127354553722243 -0.003355602303934830
0.000005175326953972 -0.002426242489727722 -0.004402706106949287
-0.000100599142114884 -0.001869799939722807 -0.003304327052491077
-0.000119688832193850 -0.001889932709610202 -0.003528351632669843
-0.000031901611447477 -0.002230315370096731 -0.004306980909462061
-0.000033534034993356 -0.002200235748406101 -0.004290884045881537
-0.000047040419854725 -0.002200590139085852 -0.004315957262926868
-0.000040257318307445 -0.002235684057664812 -0.004324960764759627
0.000038121296719225 -0.002388234119641127 -0.004142956241744883
-0.000044499868962738 -0.001448046670876912 -0.002212233318342606
-0.000253070672435825 -0.000961398559688047 -0.002232387589192943
-0.000311904694249784 -0.000778062514668263 -0.002115726090876558
-0.000452648996307925 -0.000273940596428103 -0.001325212226020203
-0.000379537352411937 -0.000242834742303488 -0.001581114578202176
-0.000035376348186937 -0.002278999810475276 -0.004334442971678235
-0.000027983959073637 -0.002278862145840103 -0.004326624700992036
-0.000029951515759381 -0.002361119672756329 -0.004360738943164431
-0.000039727630092935 -0.002132982693073463 -0.004114068415966768
-0.000030269712393878 -0.002321999719686981 -0.004350239312843819
-0.000027750865235252 -0.002303759644342089 -0.004346652847278342
-0.000043093118779848 -0.002313717681666454 -0.004350800795069468
-0.000047641655708289 -0.002278547903706850 -0.004333584915011094
0.000024216233314165 -0.002267369359862890 -0.004222032761565776
0.000036525988645776 -0.002285269234177328 -0.004205452491958832
-0.000034629709096834 -0.002367923789552844 -0.004369560841562745
-0.000042586062080464 -0.002382191414822875 -0.004371167657883528
0.000042049576492672 -0.000886490910486227 -0.001313147459729115
-0.000034545226654289 -0.000881206717918949 -0.001217121742863912
-0.000073755409638191 -0.002142077181314353 -0.004177123922154823
-0.000065329511462301 -0.002160430948913233 -0.004263485705439069
-0.000003571073397077 -0.002183166399958474 -0.003131189307007102
0.000047263700672565 -0.002215911228080017 -0.003120783662548263
0.000030344411616539 -0.002190823078363728 -0.003042981201095738
-0.000019356421102225 -0.002159130964974741 -0.003032391105261086
0.000318907464134651 -0.001129047083285313 -0.001678952974084686
-0.000094785452053148 -0.000756221768009179 -0.001198218685942163
-0.000283636804924731 -0.000306586689551265 -0.001912960350234560
0.000064615999650963 -0.002281400027688071 -0.004032940258832422
0.000063564719996863 -0.002282078585571300 -0.003999684251132090
0.000044078832851309 -0.002352462358421363 -0.004128907558411584
-0.000002196134637684 -0.002052479387569770 -0.004046933531808725
-0.000047538889610055 -0.002107712975493943 -0.004026426515795155
-0.000098514439265785 -0.001987462719048879 -0.002113432589220792
-0.000048906443069587 -0.002349798108994891 -0.004360773713029458
0.000046232657587999 -0.002196508246806073 -0.002919905194648088
0.000034966808491598 -0.002178579371687655 -0.002933553035832361
0.000063333505977130 -0.002184721025130157 -0.002960723378441240
0.000078917509635935 -0.002195732290092324 -0.002963672316729359
0.000127388707071454 -0.002213483201096293 -0.003034772126039510
0.000152590040985648 -0.002217424318682863 -0.003000455299817597
0.000145131250145428 -0.002202528714737550 -0.002985379904767910
0.000116833964710284 -0.002198457294102208 -0.003000159216731292
0.000100315883340340 -0.002227267018762166 -0.003084638587484198
0.000080697104555286 -0.002210205586112697 -0.003045556935920805
0.000180386355810610 -0.002211167609024730 -0.002958373441144430
0.000162500222837055 -0.002202003300890079 -0.002954417243728580
0.000168977367930801 -0.002210144857584225 -0.002940486348983370
0.000171593688001883 -0.002218729452562868 -0.002955126059886225
0.000187510812031896 -0.002222052948661247 -0.002892953271300396
0.000202323753420094 -0.002208563912944138 -0.002899757822248271
0.000202236853307712 -0.002206506136071835 -0.002810461006745640
0.000217941609941379 -0.002189646118903219 -0.002828205302155431
0.000189245488491124 -0.002170166229548289 -0.002735776703584285
0.000209674155610126 -0.002155770502944672 -0.002755690159868309
-0.000110475300733778 -0.002060182517364929 -0.003005935124345995
-0.000122685605162711 -0.002041041153859474 -0.002912926758577713
0.000169257356866483 -0.002107234343247720 -0.002683455267859969
0.000200741523585750 -0.002110764121174022 -0.002714873747289964
0.000138506032518237 -0.002033643888979931 -0.002629448711496139
0.000176008004187632 -0.002047551894514242 -0.002677322810088558
0.000094200270930845 -0.001952315307616107 -0.002598924834228128
0.000128287912946783 -0.001982177967930933 -0.002646551104560738
0.000041613749858464 -0.001910697679230620 -0.002594513233173994
0.000079222067830827 -0.001932906763142430 -0.002639195366761807
-0.000021851517106927 -0.001846677725292004 -0.002606115624555286
0.000025064381014899 -0.001893495508719788 -0.002658163900743989
0.000163652843008128 -0.002154538845323983 -0.002775117311442689
0.000167051637833992 -0.002187682330938870 -0.002830510972021194
0.000158742948919114 -0.002134136089602886 -0.002769538510878150
0.000164602427945714 -0.002204036307072394 -0.002897451190118945
0.000000173903973657 -0.002122276869003263 -0.002820507059098185
-0.000011016165271003 -0.002117532092799810 -0.002828928405849158
0.000008000283448222 -0.002132711634576022 -0.002875229306598142
0.000002038233972894 -0.002140713288627048 -0.002851111421170109
-0.000030502981833267 -0.002138703109478747 -0.002968377221741407
-0.000053934300805557 -0.002094520020226686 -0.002942371478958500
-0.000060338610415938 -0.002105688379478624 -0.002981571498049739
-0.000088609540991079 -0.002058610282050679 -0.002908521691414115
-0.000072830142516580 -0.002091228749836305 -0.002930954885254716
-0.000082402705087288 -0.002059941524801219 -0.002909050552247833
-0.000070994093482377 -0.002127107160612281 -0.002930627999628891
-0.000086688412573108 -0.002040842546393257 -0.002872717731030487
-0.000092565282528732 -0.002027797638138948 -0.002854955229689448
-0.000086577731899847 -0.002046884395410576 -0.002882695889695028
-0.000083927232867273 -0.002058488861036738 -0.002904447169025315
-0.000090429212444821 -0.002070160444901144 -0.002896674637501701
-0.000082188460983291 -0.002092420173952907 -0.002874034594898154
-0.000050594221111873 -0.002131933919587381 -0.003090373754119755
-0.000122962253713012 -0.001853720184904912 -0.002618648411007237
-0.000044057386384920 -0.001910324103652037 -0.002613510513295968
-0.000027278232263575 -0.001877653517964289 -0.002698623247760696
-0.000071221249092951 -0.001813703313121343 -0.002654555294883711
-0.000143475313611430 -0.001857131565250977 -0.002758502349911578
-0.000112784722203778 -0.001814336487568938 -0.002709267482243944
0.000120580516550176 -0.002075190130313523 -0.002718837992892623
0.000076553714461502 -0.002012118146257023 -0.002664216000285814
-0.000184175628068652 -0.001831169304941922 -0.002648792061571300
0.000026513451068851 -0.001961536450643364 -0.002622723117085256
0.000012868444437155 -0.001942259625663440 -0.002694280306247988
-0.000024020263879328 -0.001931041610077553 -0.002725309067973955
0.000051220215754909 -0.001970317061566538 -0.002670524010861445
-0.000098893078782068 -0.001990758171435938 -0.002830805049281956
-0.000058857959393692 -0.001951174637546135 -0.002773479737081017
-0.000068379353294766 -0.001899924895749793 -0.002752009931771482
-0.000111884294893007 -0.001933168126051330 -0.002797601170529133
-0.000036781386702899 -0.001989021311140758 -0.002766560103291970
0.000005036856678278 -0.001989182765346792 -0.002738916781072588
-0.000058316097968943 -0.002023569185693091 -0.002790972181473412
-0.000020147804849756 -0.002026656662769150 -0.002762712287273645
-0.000078998150153482 -0.002027211432209034 -0.002829467002310029
-0.000070792890298374 -0.002003046427950917 -0.002805566207430844
-0.000082013128806970 -0.002053347054124898 -0.002813039665669260
-0.000041960047977716 -0.002068113389422298 -0.002787866233079690
-0.000090436847358846 -0.002044643382966954 -0.002853713129727554
0.000021528170721907 -0.002034832525643933 -0.002751032456665710
0.000001091269216860 -0.002075086707060262 -0.002783078955771954
0.000044311105502790 -0.002088185874250254 -0.002795430613530289
0.000057628096899332 -0.002052514497176348 -0.002753913850439322
0.000042211171794517 -0.002002031953846331 -0.002718224770371046
0.000078526805341734 -0.002026321227592643 -0.002714499818938153
0.000082881955755975 -0.002009302216265358 -0.002670733874628344
0.000105556461750744 -0.002067140760725665 -0.002725582141762622
0.000115113733422216 -0.002061296352699777 -0.002692597238206964
0.000091107637024950 -0.002080767306450322 -0.002762472390710363
0.000078029046290888 -0.002100141101248181 -0.002801870793405059
0.000148667816781458 -0.002115232031894292 -0.002730058342746580
0.000128516749541852 -0.002110555398927676 -0.002757538452559857
0.000146125018396088 -0.002144288350304787 -0.002797619885039618
0.000115874235110875 -0.002107020845974963 -0.002783221498872821
0.000128598439945340 -0.002134607822496681 -0.002820355630009307
0.000102546825894863 -0.002111213428793115 -0.002807931328419014
0.000108667529084092 -0.002128807381301385 -0.002841310562386509
0.000121376664875114 -0.002205007555022461 -0.002938435421070275
0.000103256737623421 -0.002204277010549872 -0.002961767276198781
0.000137150267911235 -0.002195205648423141 -0.002896346468608837
0.000111673875329752 -0.002182903053059671 -0.002896195853939961
0.000103705259160809 -0.002205188115201616 -0.002919965162660705
0.000081217569227773 -0.002204753496555604 -0.002928050175391710
0.000089530725406687 -0.002176129242053380 -0.002901834772923273
0.000056898139634933 -0.002165218824231399 -0.002888243318411151
-0.000081879966155757 -0.000049049297959857 -0.000644282443891443
0.000060693237028867 0.000055285213045921 -0.000728599073703871
0.000196523094653644 -0.000307016881909798 -0.001170152924550217
0.000098817937583298 -0.000421849281612745 -0.001146802078475833
0.000124170875590758 -0.002160581435463845 -0.002861400114958301
0.000101724923051843 -0.002150648580931019 -0.002871770079848658
0.000144172908643164 -0.002175804999019839 -0.002844044567485212
0.000054069608240286 -0.002130649667846782 -0.002849924580759865
0.000078162252889300 -0.002141284626587677 -0.002865031339021268
0.000084790523758545 -0.002116729068101257 -0.002840271668252024
0.000062402974412253 -0.002112759667045759 -0.002831151136168274
-0.000010924504189523 -0.002159471425750294 -0.002983212685860277
-0.000044222287741109 -0.002140507643441935 -0.002921038469257614
-0.000047851392243285 -0.002101761395559394 -0.002857018406248832
-0.000553762951112541 0.000781571999254934 0.000186981398821140
-0.000457403951007430 0.000411373402814635 -0.000198728335591361
-0.000739773242677519 0.000733992360852327 0.000066354757683522
-0.000757433284871235 0.001106922547424064 0.000374678195154337
-0.000567718706056216 0.000869263534464920 0.000466125372915078
-0.000783325049666641 0.001270864213184780 0.000756446932706639
-0.000734666398332276 0.001027245328105570 0.000745911821946966
-0.000541918489461939 0.000887027863923999 0.000660265834786134
-0.000613021223083456 0.000896301359937763 0.000721098720992269
-0.000413311420301974 0.000757468074172236 0.000617571317048571
-0.000205917795198900 0.000329697419968329 0.000290108846143193
-0.000115557951656769 0.000267599461061111 0.000308702172045206
-0.000180980002738468 0.000447941679257666 0.000465279842836641
-0.000310994040432348 0.000558923772241853 0.000488772478594238
-0.000903924798412448 0.000253332001009342 0.000643460870775625
-0.000924736232249680 0.000294844184016628 0.000731862279286305
-0.000796169346179687 0.000275231949998655 0.000676662621878972
-0.000738640955782272 0.000281397446471432 0.000596946573532286
-0.001387025047936737 0.000973038575796290 0.001127145043285222
-0.001312689627788643 0.001028989123782843 0.001112859254264130
-0.001470076509435025 0.001037841838379252 0.001213371241159562
-0.001533760945184492 0.000935535304763831 0.001153378953110303
-0.000903570071073378 0.001657797586567054 0.000445128580567698
-0.000859019727987108 0.001467501117975434 0.000567677507075988
-0.000866750675987548 0.001428391872924129 0.000479448992088419
-0.000924947615271660 0.001420979298959906 0.000281519776263059
-0.001033355854138253 0.000489332025441309 0.000690476385069025
-0.001092440548828034 0.000406744118988839 0.000634608179913865
-0.000907768506346848 0.000318698096419763 0.000535767528901022
-0.000798923629660874 0.000384139667978734 0.000535934538876343
-0.000551461665930423 0.000252437728350527 0.000409258558772594
-0.000493987192152328 0.000099689285034731 0.000372027185857500
-0.000483364747892995 0.000048889512610291 0.000460928920915272
-0.000657243372397556 0.000218299393381217 0.000596401649853861
-0.000222421804047790 0.000652995616709693 0.000706035806597905
-0.000049290144558171 0.000806487228308719 0.000966031678122979
-0.000047835801827000 0.000657754470600359 0.000827580892092916
-0.000327366498870700 0.000519742981074397 0.000592497491273234
-0.000447918944830438 0.000510883098234373 0.000394404847484557
-0.000325802461204155 0.000418702724610031 0.000310602485544649
-0.000468305883582573 0.000665985719905993 0.000566283905227913
-0.000633906002971599 0.000759789316338959 0.000669120554725171
-0.000571753432024213 0.001168260089808256 0.001474242712575817
-0.000584429350775941 0.001313305839318055 0.001514926417127779
-0.000645215415642813 0.001247855090044611 0.001396707973891461
-0.000655525359946566 0.001089089508945477 0.001366465119230255
-0.000347350776365477 -0.000326559980035643 0.000017476147877021
-0.000286472045083701 -0.000288413976378166 0.000096242115096700
-0.000550111932814355 -0.000388267851864276 -0.000117877538788885
-0.000368120444349243 -0.000392053432502903 -0.000146363939153599
-0.000964445825707792 0.000990619812761520 0.001016931861726108
-0.001004590298651190 0.001020574630954976 0.000958744386741939
-0.000950027664222241 0.000979891920275584 0.001023104475900076
-0.000964835237802736 0.000991707361279107 0.001115430078272234
-0.001246000140049187 0.000650433107173456 0.000892371914448352
-0.001087177234247491 0.000657924502204491 0.000768739225665502
-0.001338406236968109 0.000821611866537172 0.000992987378657522
-0.001492129723885203 0.000797416569733618 0.001071611657004748
-0.000093962434109787 0.001138725119644650 0.001380644742447558
-0.000351068801183005 0.000960391089965209 0.001165989188075668
-0.000447135255719496 0.001107806589854789 0.001434939051411917
-0.000153716716285711 0.001285459840515887 0.001636693139061574
-0.000275481027866598 0.000789979180069015 0.000917341838897669
-0.000085557354833630 0.000957254074639366 0.001151793207936491
-0.000856916100647491 0.000672131804079906 0.000654212127731248
-0.000623480698488476 0.000598639491828941 0.000502965973087195
-0.000858272476286226 0.000836582434254422 0.000781984444856018
-0.001130712614238342 0.000842989629171959 0.000905123184500254
-0.000840081282937767 0.000352794857305768 0.000578847577318538
-0.000753591681902883 0.000297310966053404 0.000630867412633511
-0.000312001388628977 -0.000309779716423011 -0.000161616389759012
-0.000220457698135904 -0.000201247810255072 -0.000137002589818999
-0.000477050111412035 -0.000159792195746465 0.000160154586304024
-0.000457190923089128 -0.000263203460700474 0.000039181184068062
-0.000798798263872743 0.000320855200876281 0.000784150291895692
-0.000782342781491514 0.000392785702268209 0.000599735289286172
-0.000754253838670805 0.000427902815950663 0.000462674907009517
-0.000738533325368964 0.000356755224406455 0.000595190653841790
-0.000188295920515155 -0.000118732468989134 -0.000085107941594528
-0.000382676796581405 -0.000178711665316443 0.000133323758460275
-0.000437677919786064 -0.000121186985635469 0.000338665365775167
-0.000394285225365676 -0.000099125728305290 0.000209155911627909
-0.000448626500895163 0.000744785202762270 0.000649214476934080
-0.000296125402595761 0.000566351398629534 0.000509986119515671
-0.001021668638942505 0.000301021082603322 0.000535617372543865
-0.001105975248370169 0.000309693541535560 0.000691084145686373
-0.001047495725682268 0.000297786414047914 0.000717908661457338
-0.000979302513343167 0.000266911835001567 0.000574839733591399
-0.001826715241702643 0.000822289816499200 0.001490205109925503
-0.001736159813882652 0.000868828364854806 0.001274658197945040
-0.001682322310049043 0.000987160991510061 0.001332633480572711
-0.001763359828696261 0.000919364614617413 0.001492609693723215
-0.000540728460891513 -0.000551219297263985 -0.000133113184395515
-0.000423863690005676 -0.000521620837624023 -0.000176322737914281
-0.000082939475264099 -0.000300611557192543 -0.000207451704473326
-0.000308677150170643 -0.000406908479046133 0.000054078400594323
-0.000531680235241284 0.001134828648443385 0.001950422590345571
-0.000510166628535031 0.001222888043841397 0.001920984646010363
-0.000744406398464343 0.001231100346762752 0.001795425065648960
-0.000718080252728957 0.001166185204281992 0.001864672047277713
-0.000404453530737348 0.000192346178886880 0.000463401288137888
-0.000455336365465231 0.000167487933932027 0.000410454239118637
-0.000645093915259371 0.000221590594939689 0.000590297042224311
-0.000610370876455864 0.000221294632057588 0.000616927960690283
-0.000929540834504255 0.000399637971846078 0.000530393591121788
-0.000705643303633578 0.000463465173622967 0.000375405481598538
-0.000884274438847530 0.000365986109005311 0.000545140500147754
-0.000299288023737144 0.000217854067468422 0.000499089522527321
-0.000495891085832118 0.000223119859028738 0.000560701349778648
-0.000149924724802176 0.000398465375517109 0.000367718703280706
-0.000086947607543549 0.000320060796733554 0.000420915887713820
-0.000237124789811626 0.000611402532892958 0.000462438936037982
-0.000085549500152711 0.000497316503478482 0.000383907976560718
-0.000184355211337163 0.000552077725098328 0.000373829923760567
-0.000349874116559710 0.000696627956995989 0.000497415884974314
-0.000264027534331198 0.000561338719405326 0.000326704596595920
-0.000413507380333002 0.000670549923519935 0.000363007594803004
-0.000400781736660232 0.000626455650238303 0.000138168487813711
-0.000340370536201217 0.000333317634017891 -0.000236313559191782
-0.001619177510467881 0.000758563581792884 0.001182768569995286
-0.001446658840799127 0.000668460394156929 0.001071486288554073
-0.000104707732255296 -0.000343043349485511 -0.000276333425190859
0.000112039680889438 0.001195643717640201 0.001640064445049900
0.000266858870876394 0.001267098954530071 0.001869885791751005
0.000250321846192720 0.001166968775827227 0.001878294092217429
0.000107649182662663 0.001057445371287699 0.001698066872382087
-0.000884726625280266 0.001692778532924945 0.000547627691922169
-0.000940409829829045 0.001612613658691436 0.000653411651808488
0.000137401693048712 0.000978438930627740 0.002130383321701203
0.000314269982177116 0.001174067789727017 0.002267589299932554
0.000302898022549329 0.001287180340295084 0.002269757161721452
0.000170595950663899 0.001083547379140226 0.002145122220037064
-0.000320066572922074 0.001016059522120918 0.002042523399331608
-0.000349324642671194 0.001099236323245008 0.002122124367986613
-0.000381193663656400 0.001131891035020187 0.002131052282700272
-0.000258108366487004 0.000965728362904922 0.001990275440941187
-0.000669876933824565 -0.000353584152002579 -0.000127953174540036
-0.000300449820969396 -0.000181643946085358 0.000191066431184474
-0.000032733300635505 0.001065050274400158 0.001318334873418240
-0.000038070661305094 0.001020930070899907 0.001246065443818719
0.000140238716902373 0.001237687963916090 0.001518088397373956
0.000140667371203230 0.001331379806315976 0.001724667246954203
0.000116723213651121 0.001386150748305581 0.002562850811824688
0.000128958742356622 0.001505366462288893 0.002779930784068529
0.000114488492762739 0.001493092444488465 0.002643153594754158
0.000055259553040259 0.001379160099761530 0.002457849309805198
0.000068607657893857 0.001213228572227750 0.001572583364206103
-0.000125688494769085 0.001174615425482426 0.001287863146471543
-0.000089174246476271 0.001192832774565950 0.001652351826332075
0.000019650694397658 0.001259210100517037 0.001892613412182420
0.000139611128025466 0.001237906229119897 0.001697858642095120
0.000267369389878125 0.001369191440320741 0.001902507011646650
0.000068260790231392 0.001456252728559053 0.001832585320546851
0.000123693915812625 0.001299832849503812 0.001607912630980230
-0.000036819662871960 0.001550274411768530 0.002092503945010478
-0.000362440902032801 0.001390985134242611 0.001967834089893460
-0.000436612763045372 0.001371939979430297 0.002018181931128960
-0.000106107774991454 0.001511672506797961 0.002082768093282066
-0.000907330618512893 0.001174702484050987 0.000135651816973045
-0.000726113269390746 0.000844207817834597 -0.000036704226988377
-0.000762902726509123 0.001033445314685288 0.000096613886467135
-0.000128187586657479 0.000778883654457920 0.000136100983383472
-0.000111680852901295 0.000779883541578052 0.000427338274627116
-0.000229583862316252 0.000889197507350718 0.000221372264135255
-0.000228840302843623 0.000854764922846710 0.000049895612145817
0.000250624077740753 0.001864965294540388 0.002218421641611249
0.000198068267977413 0.001850883843385439 0.002450326444328561
0.000226965967592531 0.001633214713956155 0.002032829950595326
0.000215955108330988 0.001584499150819646 0.001861902879274413
0.000069424033170905 0.001436697887002082 0.002124852433082352
-0.000027568573769685 0.001268716426260564 0.002054115268889266
0.000110059229584336 0.001216235060941358 0.002108363544203697
0.000201505335936392 0.001418315429700829 0.002202738233881865
0.000225580970121349 0.001562021755322811 0.002280984672099192
0.000275270693041119 0.001678342670952170 0.002318764509896767
0.000170774825439979 0.001636332364879572 0.002211716905936583
0.000112053574132217 0.001557023643400137 0.002202004213044340
0.000244273857268968 0.001569233894820377 0.002025602252239041
0.000205451092624218 0.001429574533394670 0.001808129430285661
0.000196962783174823 0.001594729284020971 0.001998012385054685
0.000326850092259351 0.001698172873380137 0.002196169903735557
0.000153669734962508 0.000597371324591960 0.001027572494252905
0.000056885161156105 0.000513037911968351 0.000985706233497967
0.000102479917651084 0.000889129271680429 0.001256218343808020
0.000191704133860259 0.000981959599767090 0.001286126010543294
-0.000928803196561940 0.001094609854276627 0.001871342601723136
-0.001084555370035139 0.001010752687901041 0.001767738370599489
-0.000910768115868420 0.001079781600676328 0.001825758516205016
-0.000764845376208784 0.001181040633033191 0.001941532921251972
-0.000649055283850763 0.001311385382870371 0.002274941831337966
-0.000670541496475974 0.001392674391994960 0.002400846108883580
-0.000714870125173093 0.001358736347918146 0.002416327037957299
-0.000708131188845993 0.001283170684860341 0.002279134476210547
-0.000564661922073222 0.001476892558491978 0.002001290220907874
-0.000675848579145363 0.001344724874437046 0.001923482326045274
-0.000614314765640796 0.001512725903762448 0.001885501504227217
-0.000539803328888881 0.001704301030129346 0.001989049602398998
-0.000765961711167088 0.001478488000078220 0.000506945575142907
-0.000903139739940321 0.001623618739176595 0.000589074478504528
-0.000782759950043274 0.001456548856770564 0.000366764995995863
-0.000453430111385666 0.001336252063056968 0.002119294921728913
-0.000426339737367369 0.001520560961773374 0.002172795967581510
-0.000398875749860535 0.001517268896727060 0.002289844964256744
-0.000391152825999345 0.001256002634716575 0.002157723642692593
-0.000566089034919910 0.001008619518780300 0.001526262477650949
-0.000635420582336858 0.000935418286116453 0.001423026885189932
-0.000438563467087958 0.002063524851714523 0.002163607370705205
-0.000392602127363071 0.002068199232890416 0.002375945879555330
-0.000395669395646740 0.001791695491944472 0.002298338001753072
-0.000463692565974844 0.001789399634518515 0.002162715568457598
-0.000053799902471278 0.000839487482545331 0.001291302048648343
0.000030463526625623 0.000829507488891804 0.001262553264187112
-0.000453799173047234 -0.000405839523941911 -0.000068336813179173
-0.000620960963811932 -0.000359639484728797 -0.000149395531140388
-0.000275576844067221 -0.000111691995493939 0.000262551821198736
-0.000185152576267902 -0.000114480473882592 0.000344749382833957
-0.000656268609243616 -0.000554979465198816 -0.000158580586029643
-0.000504613515048970 -0.000605750323170180 -0.000180486800388386
-0.000644587030877796 -0.000530900592759160 -0.000232603832126984
-0.000711652749826303 0.000416579051866824 -0.000381033005031240
-0.000502535950726725 0.000307438524658058 -0.000620079421743942
-0.000492428190594314 0.000572452392194538 -0.000367389935745065
-0.000705535196883406 0.000664916115807261 -0.000199641560738027
0.001320000085845861 -0.002065623463284991 0.000235083498962424
0.001635592374828507 -0.002174829737741218 0.000481009626832355
0.001492189033827938 -0.002352013221895995 0.000022314864189692
0.001258840484602158 -0.002020988864699854 -0.000145161241242426
-0.000158912219216795 0.000666528840374584 -0.000610059766839364
-0.000308364272727301 0.000613634398947007 -0.000514955613942825
-0.000368124986467031 0.000370389580960270 -0.000797028297115129
-0.000244980749851106 0.000489564591265260 -0.001041626885184137
0.000914126210239039 -0.001720108765336082 -0.000394205772234594
0.000922242260358183 -0.001735217683898562 -0.000026316189578962
-0.000794250910395605 0.000464227111896632 -0.000262301075175380
-0.000880767297230576 0.000878157003811560 0.000002087257654190
-0.000873825935232042 0.000877655179238746 0.000124687920456760
-0.000673114551951202 0.000318190592464216 -0.000242734098842760
-0.000493036355115349 0.000128171326116213 -0.000386003895439508
0.001356843948302045 -0.002146490316845979 -0.000379730524593959
0.001075685015771302 -0.001913655400675155 -0.000456903019222089
-0.000536557214843074 -0.000004272822050126 -0.000898187900696037
-0.000426528610823482 0.000069821060979752 -0.001033510775878773
-0.000335416707085891 0.000167953921500274 -0.001328735699316083
-0.000244705039380709 0.000083322586953795 -0.001607804070375258
-0.000329911350804756 -0.000826977226936570 -0.000125625791110337
-0.000257453650048805 -0.000850521163363006 -0.000208509971807859
0.001269545785590235 -0.001830939125468228 0.001053220139024181
0.000931735920633234 -0.001795108121243356 0.001102427043775445
0.000857224597078689 -0.001840440620781432 0.001035410998102636
0.001319367107094971 -0.001821211296178257 0.001003103451217521
0.000187346675724273 -0.001757277772570767 0.001204828737614896
-0.000012585064878506 -0.001846013050634647 0.001051433592855511
0.000419867901991322 -0.001811202135459754 0.001074218254628495
0.000547148028005680 -0.001826606790560599 0.001282631140877186
0.000449974692029007 -0.001833459604578040 0.001709832461254148
0.000694445763888364 -0.001873826432573309 0.001756664929817282
0.000684927025774656 -0.001841080232132647 0.001730594583910224
0.000510136159014481 -0.001747953970936666 0.001729214139761440
-0.000250699847873914 -0.000846651678061383 -0.000012174502583398
-0.000305596691008796 -0.000767845139902156 -0.000089571890747402
-0.000066791426660832 -0.000825718182209319 -0.000333917728408101
0.001975093674352728 -0.001623229587613885 -0.000714454703809373
0.002140946083017265 -0.001704777018057488 -0.000046416903877472
0.002085801772775780 -0.001601983486417618 0.000084970607503411
0.001905853884357769 -0.001454952706179241 -0.000542237339716707
0.001785915889146474 -0.001546062503299333 0.001022098904550294
0.001824580153012734 -0.001718816480525763 0.000919391890959381
0.001276326650151825 -0.001787607295851034 0.001090707379415839
0.001143367295012245 -0.001669021489515683 0.001188535507683121
-0.000587058864105550 -0.000548532637865685 0.000447969929940485
-0.000070285277908181 -0.000732503858306610 -0.000195387742258645
-0.000290705049209280 -0.000850417738927901 0.000111088319032462
-0.000327479266913532 -0.000853714887640296 0.000684227267622327
-0.000516523004709485 -0.000789000080186283 0.000825739537948516
-0.000254278489077417 -0.001095309408022450 0.000325202430329459
-0.000146557988378378 -0.001175100539890692 0.000188144763495465
0.000269508090384808 -0.001805997586441947 -0.002361591077399157
0.000055425347151560 -0.001867669290233895 -0.002411893541664668
0.000046831515468647 -0.001540838832938496 -0.002434891408949834
0.000336511003541072 -0.001404721738132419 -0.002433590038161848
0.001039914070882003 -0.001680097565130728 -0.000794485699633028
0.001081350777638121 -0.001564381258333188 -0.001185835015613549
0.001149913271659327 -0.001445069766587277 -0.001170301460562282
0.000975065607887604 -0.001530426786272926 -0.000840337498032144
-0.000179573879251326 -0.001953771460244554 0.000798329957513206
0.000139624681666017 -0.001849082349998352 0.000825346937987066
0.001725052436293101 -0.001358429120227921 -0.001336940673097347
0.001740594757284643 -0.001526600652344292 -0.001355640033363452
0.001394079814651890 -0.001279129843836996 -0.002078232458580115
0.000884061714391196 -0.001290848469024172 -0.002632727908302760
0.001010865752477408 -0.001446641251835944 -0.002597242894309136
0.001429998027501529 -0.001427006455517523 -0.002049419161793417
-0.000177724003788117 -0.003353701964615151 -0.001503771179224024
0.000110733581891087 -0.003094798936840354 -0.001650998308072487
0.000132858050500546 -0.002893384586400087 -0.001854535259757024
-0.000029293549711233 -0.003109153353963052 -0.001573877501826090
0.000341291038581194 -0.001599924578888258 0.001451840306511083
0.000289517091059424 -0.001624340291102676 0.001357225016929685
0.000629152154972910 -0.001775014928358011 0.001311130353561594
0.000637076317338776 -0.001634045815175728 0.001402693739715856
-0.000322379642332130 -0.000715675672656509 -0.000096255315053644
-0.000143401386717281 -0.000939144768580087 0.000057530333426751
-0.000171925474290647 -0.000806380057062296 0.000005864995131863
-0.000273511455607185 -0.000408086709102412 0.000036104650159282
-0.000150916626997503 -0.000497386237230435 0.000204094692758474
0.000033128483369504 0.001025197808194040 0.001522930456411288
-0.000034660013607981 0.000924977114628442 0.001361529256348104
0.000013732301082413 0.001213321714228628 0.001427706958231285
0.000119985720246410 0.001405870108975759 0.001622181316748679
0.000176662928545957 0.001527875771315321 0.002338706000035797
0.000117504235847364 0.001376474672011150 0.002113736507180757
0.000542916353067481 -0.001713746988296317 0.001011485464964327
-0.000094380889456918 -0.001912778080873261 0.000836487916903710
-0.000017673985495682 -0.001703929357673010 0.000978969407148842
0.000535204212420120 -0.001518963674825619 0.001024168341145252
0.001577005613098351 -0.001412759593855817 0.001031811170447684
0.001958329210900881 -0.001452203646910893 0.000707994977115487
0.002086024148874978 -0.001588738957093832 0.000630418701665028
0.002043878352811236 -0.001457080984838652 0.000151250622683621
0.001814210086709291 -0.001373416022100433 -0.000542763995773549
0.001256084073673282 -0.001176362994114617 -0.002106322181876286
0.000744834158639814 -0.001168894625821411 -0.002650467325191543
-0.000178985516868278 -0.001771526364530876 -0.002239450568394612
-0.000010417893832167 -0.001584518040710871 -0.002622837305549841
-0.000166066163652081 -0.001449117480967613 -0.002587836287374952
-0.000334095952187525 -0.001628249118930731 -0.002135810760610151
0.000856736028308540 -0.001856720970510249 -0.002098725610106419
0.001115675091383230 -0.001649048354841924 -0.001817945553782992
0.000954233681069938 -0.001905781007289673 -0.001914661123136561
0.000752572900893969 -0.002068024638061793 -0.002100925000265246
-0.000477341487844444 -0.000621981229734825 0.000898176043907984
-0.000615299251745894 -0.000605231699903501 0.000901904114039744
-0.000643809087839071 -0.000715803125549482 0.000730099870593569
-0.000720502344960162 -0.000484145452738235 0.000776776158816678
-0.000662725632206811 -0.000335147953974993 0.000503578913926731
-0.000582618776408482 -0.000176663073962783 0.001196087477131894
-0.000654572650099134 -0.000112161383268028 0.000956848367188886
-0.000733929845635951 -0.000170895407184319 0.001055208329735887
-0.000651189782201302 -0.000273513911950214 0.001332109628671507
-0.000532874697848111 -0.000140088240504570 0.001090081644979329
-0.000626385066374101 -0.000098236745709729 0.000949006385459828
-0.000521981634948102 0.000232140074648395 0.000708996408245306
-0.000712895532518558 0.000360765181907853 0.000621890292782399
-0.000706924864186179 0.000299619858803376 0.000783821368406542
-0.000005568504436723 0.000352446601583317 0.000378503167185318
0.000020287331807898 0.000165353535156725 0.000358615325176220
0.001172662612956357 -0.001830873453194349 -0.000765389088225516
-0.000338386105141631 -0.001966056268999232 0.000441535205894621
-0.000330471485538434 -0.002004988383506570 -0.000186707746043014
-0.000446351167645132 -0.001823424116810910 -0.000020749494696208
-0.000407343882214554 -0.001760923160577690 0.000636963408344719
0.000922207644382291 -0.001643275325929727 -0.000613331626476416
-0.000217614340071472 -0.000420569260451122 -0.000269043905228337
0.000113092281053234 -0.000722627394684753 -0.000467251116552508
-0.000297930407891307 0.000519753283162452 0.000406027232935757
-0.000479565116255421 0.000360756766272081 0.000426700216893934
-0.000464260895841537 0.000157086246689803 0.000322892756863494
-0.000619981484303433 0.000214799774804847 0.000516143108408445
0.002090077341358245 -0.001759303972867561 0.000482173549427276
0.001258660285860119 -0.001076569719464476 -0.002155437697541767
0.001205317853401284 -0.000974951414415930 -0.002182278528083904
0.000548186670547144 -0.000975283611302278 -0.002522960578489194
0.000606703355742077 -0.001042919394845393 -0.002595586719785221
-0.000441241478023797 -0.001668028540902892 -0.001309635856237672
-0.000431068953254928 -0.001454250431951905 -0.001943008905036204
-0.000439953524037029 -0.001326229251164757 -0.001759940195953352
-0.000492595951861703 -0.001475758054481230 -0.001049867583347409
-0.000524770853816442 -0.001346910993314252 -0.000818859148631055
-0.000463717434382865 -0.001210230290336888 -0.001506320331076587
-0.000407301744424174 -0.001208893695255637 -0.001184855986262039
-0.000495481488990376 -0.001229415813099409 -0.000592006535673493
0.001642112827791264 -0.001242357290631123 -0.001377543480254239
0.001867452749023759 -0.001203241701652522 -0.000809753089308353
0.001671050094689262 -0.001072823437395526 -0.001596226280510163
0.001634710763173837 -0.001159279350264130 -0.001463020016392885
0.001930340203176882 -0.001277743392985378 -0.000716772426797744
0.001061627501466962 -0.001438713695639666 0.001099149454200364
-0.000343833378730537 -0.001730377436650424 -0.001457754163777961
-0.000192396201630448 -0.001912790604873137 -0.001608714563418260
-0.000534668362237669 -0.001526059632674021 0.000285837525156392
-0.000312071644225705 -0.001505161896150752 0.000709528737678965
-0.000436779821684457 -0.001579516156682898 0.000743268605671279
