VERSION .7
FIELDS x y z
SIZE 4 4 4
TYPE F F F
COUNT 1 1 1
WIDTH 738
HEIGHT 1
VIEWPOINT 0 0 0 1 0 0 0
POINTS 738
DATA ascii
-0.001111632526581598 0.001458552031881753 -0.000638685438590668
0.000508158448463299 0.001399466921748850 -0.001469442946747863
0.000047471024344038 0.001018231890439544 -0.002394255959347038
-0.001906878300038942 0.000884742686379006 0.000422224209944772
-0.001736027206798005 0.001159336118401300 0.000397081425514798
-0.001447781753351254 0.001483925942455998 0.000324835001848573
-0.001114204312671348 0.001995159173321802 0.000112264312209426
0.000710312730911151 0.003938399282739081 -0.002770234461432599
-0.003730287754195182 0.000641856051861061 -0.000343001854986464
0.000055322174447785 -0.000023998534892174 -0.002658672557008726
-0.000093743617032781 0.000498640293907121 -0.002509545114767709
0.000436347445211568 -0.001238176879291573 -0.001820793955824985
0.000337305665544911 -0.001190586328102759 -0.002399749554483787
0.000906161717396044 -0.002981994375211762 -0.001211692977918962
0.000498025268322023 -0.002544085590804659 -0.000967546648818754
0.000329646352781153 -0.002159329148282067 -0.001161877880959642
0.000226758801207607 -0.003233088270645599 -0.001285487366874495
0.000238615775224241 -0.002979879907977993 -0.000308350990574748
0.000321374250375146 -0.001781180435232976 -0.001048494328116185
0.000355844586829445 -0.001785210929880381 -0.001367120792382441
0.000148449128383865 -0.000748039774729345 -0.002206114919238728
-0.000028738823002482 0.000809702629355164 -0.002276164359509854
-0.000077484803497240 0.001061309024879873 -0.002636642945140927
-0.000031909252139258 0.000894388260967741 -0.001891802612341707
-0.000023624784459700 0.001301068353256245 -0.001703078510505324
0.001248251850420074 -0.000579654376121619 0.005520361781636168
0.000688470194340339 -0.000329501496543480 0.004579585195757657
0.000771818178168536 -0.000352387547505666 0.004913876173195687
0.001180992532119167 -0.000638419546829933 0.005835849948412618
0.001249540202790107 -0.000539804624839669 0.004821706142782801
0.000478780550841145 -0.000332476552044506 0.004021792885864802
0.000549732374283432 -0.000339737482090343 0.004266066766796736
0.001249176856803865 -0.000550987323737310 0.005192810388188367
0.000503559153900465 -0.000294587526170222 0.003848729023091054
0.001330162565413505 -0.000523169184649671 0.004557229530865924
0.001714587338774430 -0.000961443918366949 0.006171449384694199
0.001880212748481302 -0.000953365095408736 0.005895196546552353
0.001511739753831999 -0.000996541480595671 0.006477452746022774
0.002062498892409504 -0.000886855532429977 0.005126588684777377
0.001957009012861570 -0.000913111984981548 0.005495624785922012
-0.000018182517488463 0.005433719968680180 -0.001543983568787002
-0.000283399762484665 0.005963411651308943 -0.001614951786500923
-0.000432963357526230 0.005993387710353251 -0.001738451515847385
-0.000425743544869019 0.005921834762062364 -0.001664101230161608
0.000402278180045472 0.004064449775948977 -0.001391269469173988
0.000334484494575765 0.004144116387024194 -0.001623973386475499
-0.000313955741989026 0.006183071134264823 -0.001604053197296673
-0.000273501961105975 0.006091925993174315 -0.001499029166626248
-0.000399170443775103 0.005732063026285945 -0.001347876165241863
-0.000401733561797752 0.005764404630552602 -0.001419949942618820
-0.000415300878485185 0.005871106003051340 -0.001641455401087112
-0.000403678293821129 0.005910741824153800 -0.001637687883380325
0.000293839834347853 0.004221792059509527 -0.001686035501848371
0.000337768224314307 0.004501055683083890 -0.001365330590865946
0.000179832154109763 0.003964996368310166 -0.001663299800978243
0.000152080593066161 0.003779183693627178 -0.001484312922385271
0.000001372500897489 0.003681557354689539 -0.001075065213065934
0.000026714177998672 0.003398901990687552 -0.000476063984296892
0.000286172434839756 -0.000403427820120615 0.005685118758942167
0.000114480961289151 0.000345814241153275 0.003093555044113127
0.000190914802252005 0.000402435801261100 0.004201269394454281
-0.000004066055800787 0.000721281744643780 0.002331913281942388
0.000032658389700144 0.003020891728448771 0.000004359139484576
0.000254482574133303 0.004117939819789120 -0.001690429201215171
-0.000363493782000960 0.006051420576200327 -0.001697845156477747
-0.000319906196915400 0.006084994425026124 -0.001591246902316160
-0.000406447064630826 0.005796791038065331 -0.001488163288140320
-0.000404005881053558 0.005822334111202313 -0.001556689126754113
0.000037892708761624 0.001940796958639427 0.001197433459928942
-0.000016049710334988 0.001242003678698443 0.001838792301310479
0.000260318570602697 -0.000012407170087977 0.004993460507654135
-0.000129563920873947 -0.000805537950854903 0.006385168269269980
-0.000317665577711673 -0.000988490114370091 0.006296123768543783
0.000120782898627130 0.002600569517389057 0.000482163772390243
-0.000402292090371814 -0.000896064731021070 0.004738053125432498
0.004895473431864765 -0.007942978278699886 -0.000766539491589844
0.004217020754510604 -0.008275980459680556 -0.001071734384161803
0.004097910146028113 -0.008339602372618342 -0.001579160358777880
0.004591402499660008 -0.008093649864611967 -0.001361462540267320
0.005399868243682480 -0.007571379340266496 -0.001187914910525867
0.005507275654332882 -0.007253725050781726 -0.001303144596603049
0.005785964455499291 -0.006769395969338766 -0.001423009091689497
0.003510696334047130 -0.008526366636631949 -0.001787170244031628
0.002525417710814690 -0.008299401934026328 -0.001930020596359819
0.002757780922248249 -0.008625795951405469 -0.001757634210867329
0.005056294030326161 -0.006724683510568552 -0.001867537524263723
0.004839830842526793 -0.007193844766966942 -0.001705718003594772
0.004232329685649175 -0.008058587140025031 -0.001649755877871317
0.004353180262733855 -0.007774356896513858 -0.001568997572522773
0.004939116055382358 -0.007767146546861487 -0.001165364326160155
0.003239876319153023 -0.008257772919275236 -0.001860300212790699
0.003825429459256499 -0.008164672967147540 -0.001784216738206880
0.002199258970626133 -0.005480522717678071 -0.002274925013055127
0.002269292582110620 -0.006016466426788647 -0.002379901372260303
0.001470748583744293 -0.005812503230900291 -0.002381515729902430
0.004901972226638024 -0.005249670370957905 -0.002036168567480115
0.004360301098115512 -0.005873506583120863 -0.002215154127459403
0.000436971384442723 -0.008689849593903743 -0.001833790405122010
0.003675599441783860 -0.007911521551402723 -0.001744696199555227
0.002401316157761712 -0.007953179708992836 -0.002214484348695635
0.003039427947014110 -0.007972189744010778 -0.001918494562090350
0.002640096691676633 -0.006712102124556322 -0.002384406991550599
0.003378015458653274 -0.006730851721053976 -0.002301660994067767
0.003125099826245546 -0.007148924777509376 -0.002300364694111229
0.002427385906731203 -0.007114073035389228 -0.002403809333613723
0.004201981713286440 -0.006746185430696698 -0.002147018249140719
0.004343126483115051 -0.006359795558348056 -0.002195949014265949
0.002823039347410591 -0.006425519092232735 -0.002316836586945281
0.003537694339797400 -0.006400236935748910 -0.002301421266300786
0.003648847339908060 -0.005962491517909317 -0.002305389585597907
0.003999808766511965 -0.007191393975308744 -0.002013756197533161
0.002281461474368496 -0.007499952144763626 -0.002344250828755225
0.001616480465139979 -0.007446054525677068 -0.002465930120201190
0.001007490011455197 -0.007409124017118836 -0.002459196515117649
0.000280841416039391 -0.007429396717629809 -0.002310751248343729
0.000267628569910635 -0.007078608231015606 -0.002283262296517188
0.002914991883816493 -0.006039458664359830 -0.002365502381942611
0.002735319912561648 -0.004924608264423603 -0.002349970278249568
0.003001977962813182 -0.005580827395083594 -0.002368924699168206
0.001328092600937556 -0.003234982484168955 -0.001494734313836534
0.002116968508792018 -0.007405438648219258 0.002241055915539611
0.000822064436298542 -0.008666606025936817 0.000678389153797614
0.000802241767416460 -0.008313970505770424 0.001372500115429346
0.004695976835833982 -0.006685631938687387 0.002195302356097810
0.005741259513366796 -0.007567932254331274 0.000323587553146332
0.005557940921892613 -0.007784395344661262 -0.000658968311674822
0.000473766860676803 -0.007806576942181700 0.003030661523943080
0.000875315237171862 -0.007483017753319756 0.003806373604761863
0.004312515088981912 -0.006198930531820680 0.002772262480786997
0.003048311491901402 -0.006071679024586985 0.003862874715359076
0.000650258471095564 -0.008011028682549600 0.002080710460705846
0.004491704094232010 -0.007570052216970978 -0.001543571691636563
0.003756568740258065 -0.007634137766363536 -0.001861122429545868
0.003030496021828335 -0.007599725184014326 -0.002146139584572884
0.001657421372114179 -0.007877647759002564 -0.002408326649930988
0.000890464428795829 -0.007775696589937204 -0.002447619238952974
0.000327034674479073 -0.007719676018802667 -0.002171777657808566
0.001658401553511013 -0.006459193739633139 0.003333956855419358
0.001079043782991883 -0.006407903235561620 0.003841755231174531
0.001424644873227289 -0.006452226680648696 0.003815448606242402
0.000682404657074236 -0.006349380878338923 0.004719017518266083
0.000669563707981229 -0.006473663074253704 0.003970149806981065
0.001105372852590503 -0.006476072817638638 0.003363074723406295
0.000615761882683722 -0.006584811637421755 0.003447116063557088
0.000560664386775777 -0.006683543317616783 0.002826658190354550
0.004198044461949151 -0.004830739984817623 0.007211800858519180
0.004913743593581237 -0.004687890030410286 0.005899016079772649
0.001202400119794181 -0.004859171781299005 0.008909123707702818
0.002242797103436942 -0.004897322161901463 0.008777980734755568
0.006307840170869865 -0.004773769439568553 0.002167323748998613
0.003255964088074440 -0.004931676522900153 0.008272910247309324
0.005357616532087522 -0.004579717612811171 0.004562391990713081
0.005855609440532476 -0.004592981458402205 0.003322134082611737
0.000407337210562673 -0.006217868747468046 -0.002338678067461336
0.000576945307142854 -0.005505602507158854 -0.002270082637686856
0.000199729136371573 -0.004866730406098932 0.008885466443817960
-0.000147218425134262 0.005888260379808998 -0.001530671589890109
0.000112817519445789 0.005244806130937055 -0.001465543441974460
-0.000540044563069216 0.006538580018591774 -0.000328553183293793
0.000128595223039146 0.004476831807885605 -0.001591350657707059
-0.000475520495444507 0.005631809014617313 -0.000509925925955042
-0.000377868089117129 0.005907105919805884 -0.001619158336456290
-0.000398262771717030 0.005737041275297135 -0.001307101051662763
0.000210547937679878 0.003543550678448199 -0.000993867826715664
0.000247501513087550 0.003446380066815100 -0.000195734158648938
0.000607352022936330 -0.008972500129254919 0.001146790868574047
0.000195483368136191 0.003146339038866534 0.000203283611834430
0.000615501388490633 -0.009074698120269028 0.000494384709735501
0.000428860681723231 -0.001476376445863013 -0.001711291320661192
0.000183627959076922 -0.006946383328970388 -0.000828156489196990
0.000191895201466513 -0.007087817898887201 -0.001196890950306953
0.000429450202374470 -0.006868190413443097 -0.001177365521977288
0.000533202684100872 -0.006694053039691833 -0.000900083686161862
0.001467679026259395 -0.007018253740607169 -0.001867011257858323
0.000899490231168405 -0.007081239163776844 -0.001668445728373195
0.001951260561043460 -0.006877500456509206 -0.001877315433147360
0.002257891708145850 -0.006766032936118373 -0.001778122889353763
0.002308326364382013 -0.006662766671079966 -0.001862504646181609
0.001948732535380051 -0.006763883622671423 -0.001698909950595232
0.002171006633693741 -0.006687875381538412 -0.001553669978635174
0.002023549397798024 -0.006461746487283470 -0.001285811785720715
0.002083847847474112 -0.006577133697821527 -0.001195602929028821
0.002345704478525592 -0.006566347450480635 -0.000984351440637958
0.002591733032041536 -0.006436867452583709 -0.001063299296197055
0.002049215538147835 -0.006406480600390179 -0.000983566911734425
0.002247901163493831 -0.006240040348178995 -0.001023284029723948
0.001678803016940376 -0.006373197031328630 -0.000778003038169878
0.000438762448946258 -0.006682816978767807 -0.000553352383722327
0.000678849964110500 -0.006430466735200319 -0.000718852330061987
0.001515109122073919 -0.006861933607182001 -0.001550759738673899
0.000813301260156877 -0.006888571358348033 -0.001429265809811806
0.000520054134526289 -0.006916566848984945 -0.001375696854880145
0.000427161846059883 -0.007107903036234254 -0.001419171189847699
0.001010008655073336 -0.006655579082001413 -0.001142375693610941
0.001098200157765253 -0.006524877394847698 -0.001085165020237052
0.001556596132118776 -0.006728207461042295 -0.001410595228576503
0.000830622119999866 -0.006744958244038146 -0.001449491544270986
0.002561294862875798 -0.006592815726252879 -0.002025341870170085
0.001967183003391222 -0.006683630296618705 -0.001529651491461609
0.002136804783412047 -0.006480162524938935 -0.001325851438933077
0.002182041591512536 -0.006533100560632093 -0.001536510951258083
0.002097897305461709 -0.006587722323679959 -0.001506935732882048
0.002529922588657084 -0.006278977011273726 -0.001171738526776721
0.002146018297337110 -0.006133210991721949 -0.001150170052672627
0.001048856488690357 -0.006302052466147463 -0.001025432045985041
0.000912821170658636 -0.006678904213526327 -0.001277347575624799
0.001892713798692816 -0.007003620631587163 -0.001985172704442671
0.001868893734635666 -0.007025827173908858 -0.001867016528468483
0.001853260278488950 -0.007060851137432150 -0.001827224693217577
0.001887896360087096 -0.007045509094387293 -0.001939138735963259
0.002057031808873025 -0.007516412961260484 -0.001620662540601879
0.002021886910998869 -0.007641189418830251 -0.001561233074956810
0.002018951300753398 -0.007637656917943532 -0.001393069746047072
0.002016549862972426 -0.007548648450598178 -0.001398464024081949
0.002026285556881372 -0.007209723496433830 -0.002049647932651814
0.001960179669175601 -0.007154669970717968 -0.002069810024551736
0.001944436059703183 -0.007103475114595935 -0.002139814342297212
0.001929861632292592 -0.007133193681524868 -0.002205388612927518
0.001540087163434576 -0.006538402354294826 -0.001734448521193815
0.001491298094861083 -0.006505152658473594 -0.001794365054361148
0.001477763359480056 -0.006501770030682352 -0.001852230304275694
0.001509122201975380 -0.006520193597559523 -0.001816344052470648
0.001788782942947957 -0.006813401052407196 -0.001818138026263284
0.001759000993690916 -0.006762177669554154 -0.001869257505583842
0.001763041438875573 -0.006738981029643733 -0.001898038961978573
0.001793450092228206 -0.006778104818590684 -0.001833704564357343
0.001671896390957904 -0.007116541771813721 -0.001290903366865077
0.001539902879737725 -0.007111611205833478 -0.001062893378470142
0.001844215451869144 -0.007428047396949896 -0.001237318823647607
0.001875178225916531 -0.007430615379230847 -0.001410771753294972
0.001819774401343025 -0.007456137026477132 -0.001221115161503377
0.001609045063729351 -0.007200385276471303 -0.001163862834701589
0.001587783059883942 -0.007321918407070990 -0.001338722950788188
0.001779157604410442 -0.007419184357469794 -0.001383231409464475
0.001648979884749715 -0.007238872217398962 -0.001508344703187855
0.001870694460943090 -0.007325805595782146 -0.001551768718812777
0.001730862937443071 -0.007147525582635521 -0.001512807987096667
0.001982672273776982 -0.007342731826573535 -0.001603281950968237
0.001719550103392583 -0.006937516530440531 -0.001787598987019283
0.001705603255489253 -0.006951539122184579 -0.001620716474632764
0.001831080465525865 -0.007094515392389074 -0.001888843807344827
0.001838626397684444 -0.007015596567567345 -0.002063821796460137
0.001710289082087804 -0.007103321482304219 -0.001548123861326944
0.001844428907050990 -0.007197054818689859 -0.001799589411247373
0.001708268375960464 -0.007162226854208443 -0.001635053150192909
0.001671763421991324 -0.007107643607306004 -0.001719555914320727
0.001852969363040474 -0.007144363815004624 -0.001906787333580383
0.001914897659547921 -0.007267137342562805 -0.001816228968852036
0.001702958260588479 -0.006974296496477669 -0.001813681686235053
0.001835356804771186 -0.007023284861478792 -0.002037989670968266
0.001638968288648183 -0.006791993068413596 -0.001680908034638222
0.001653517260453896 -0.006873610868705416 -0.001602562334900787
0.001754081326714117 -0.007018585935382135 -0.001729661084051660
0.001792885469414401 -0.006923893007524475 -0.001794497391784351
0.001782088914906954 -0.007022573006285940 -0.001827356486343892
0.001649806477337070 -0.006905037870175252 -0.001716792819968741
0.001646788283976921 -0.006881776404441764 -0.001823931316633643
0.001787776525133802 -0.006961486478606731 -0.001947090518033152
0.001691391956344829 -0.006809590303637616 -0.001868503847105635
0.001809949716614031 -0.006869795874421542 -0.002004846133105194
0.001701366411251080 -0.006787249556408558 -0.001824224980316197
0.001845155492084536 -0.006891120821320991 -0.001975154681723487
0.001633129148532553 -0.006627710214307143 -0.001773397865015890
0.001551581848082983 -0.006567184522178990 -0.001658916202449645
0.001691090049647427 -0.006692929016973945 -0.001742057881356246
0.001719718180089110 -0.006718399256720225 -0.001821842370859822
0.001553593878903397 -0.006644488555089664 -0.001631605810902038
0.001705252459527409 -0.006734491422568935 -0.001759467789230094
0.001688231005724954 -0.006763307486016286 -0.001747863574976693
0.001591116004293922 -0.006700018236907035 -0.001679386851764772
0.001589725122063703 -0.006683724178867547 -0.001787845896854793
0.001685940783655616 -0.006746482107613580 -0.001856920960953306
0.001604085978257739 -0.006625028039270122 -0.001844800299679616
0.001687708603439278 -0.006635782771626957 -0.001864041954387717
0.001303137332315260 -0.006481401267161348 -0.001697124712194483
0.001421887642995899 -0.006508615003186099 -0.001808288906534083
0.001456098810091239 -0.006484757083132702 -0.001856631609760547
0.001327555391753876 -0.006472920474076149 -0.001754104436030070
0.001332143753111730 -0.006503231632228761 -0.001642903827250698
0.001458932079123864 -0.006538082777878471 -0.001683187231192342
0.001467213119376562 -0.006521317885019745 -0.001667185124888487
0.001412868047660201 -0.006477101084557909 -0.001673586002532524
0.001383214811901905 -0.006466795422881765 -0.001775460571700775
0.001439403441387074 -0.006463811471689985 -0.001802354158046035
0.001330558522573971 -0.006468708645678254 -0.001814159163902202
0.001403346341810485 -0.006479587462422881 -0.001827564721600325
0.001496321367035161 -0.006845320570138193 -0.001318895726923992
0.001263918722221778 -0.006869421429452428 -0.001011896456482822
0.001924346041554139 -0.007486192269129733 -0.001439574944372313
0.001325730619364510 -0.006984798904716105 -0.001175875824314734
0.001992252662915925 -0.007437987333128851 -0.001547408760038809
0.001425836061039370 -0.007081910480312143 -0.001512088438818356
0.001330518966740229 -0.007159240896841082 -0.001355210823110449
0.001584704653153147 -0.007065544419118004 -0.001498449814762256
0.001883786821315909 -0.007168428280187360 -0.002099268366393051
0.001452052564786592 -0.006855097157247819 -0.001693346697333324
0.001591230691784368 -0.006811780094146116 -0.001665990294903449
0.001927799944985635 -0.007216034300848905 -0.002048184367183797
0.001517201256722740 -0.006554021739022769 -0.001377525459351911
0.001407847641703665 -0.006411764687914027 -0.001505446567473962
0.001857306635541027 -0.006958286339951427 -0.001982952275246417
0.001863784644713138 -0.006922228569375699 -0.002015779355939416
0.001482058970127736 -0.006717099552781042 -0.001726136961008065
0.001560442321672338 -0.006676029997535369 -0.001704282555501576
0.001769066219474572 -0.006756613926143630 -0.001800732716241523
0.001380822148286728 -0.006582301081236835 -0.001737094028192031
0.001458346724152681 -0.006535734099127877 -0.001695463421542120
0.001769811788914361 -0.006810436806988984 -0.001756978985085063
0.001268242462030328 -0.006435029902045257 -0.001570165491959676
0.001519863997013203 -0.006551404227439749 -0.001781081262047084
0.001223212920417223 -0.006546606145847811 -0.001709855072672882
0.001182048416176624 -0.006539041482330607 -0.001623048504620741
0.001540520563306389 -0.006553847691687811 -0.001720716992916102
0.001223941108344768 -0.006396472754969490 -0.001559909360816181
0.000954648438280938 -0.006199474245130857 -0.000722581850511156
0.000823592438596724 -0.006470738283527094 -0.000534314454426602
0.001268877015510263 -0.006356236504508220 -0.000662531837790047
0.001336073983176953 -0.006134691945338858 -0.000920881035368615
0.001735899801609911 -0.006163783340063566 -0.000937755815364673
0.001003416487011133 -0.006105520940377866 -0.000957673426318233
0.001343405529184383 -0.006064836388739480 -0.001105336311344918
0.001711056534440455 -0.006057350412821518 -0.001065769035430742
0.002200888395129395 -0.006300167616556676 -0.001134626557112391
0.002019523809160528 -0.006535056690903198 -0.001222921988822175
0.002561731206484522 -0.006507122212891547 -0.001822765033439742
0.002637147065669594 -0.006462355580088892 -0.001875369728011553
0.001844265463193659 -0.006564051392176664 -0.001324188956575763
0.000978401651918926 -0.006139415099317182 -0.000985272330831523
0.000996462429356461 -0.006105925008536604 -0.001056258419153376
0.001252595740717993 -0.006119413368054103 -0.001149680131466502
0.001590592377209503 -0.006015685501522659 -0.001008098229810717
0.001041284966481549 -0.006740482675642240 -0.001054641687582315
0.001144011918538713 -0.006568275774430609 -0.001057136166415928
0.000888222307533806 -0.006468371968990994 -0.001121215533980733
0.000749751536750278 -0.006416631142122015 -0.001186290308925091
0.001180680698743760 -0.006277657682440137 -0.001139305572950451
0.000959958454071800 -0.006185701978212701 -0.001145385262633573
0.001149918615211774 -0.006075298165814578 -0.001214717677073039
0.000983171417072271 -0.006103168285630693 -0.001194171778089952
0.001061124296427916 -0.006233417994344977 -0.001349014477301228
0.000997300047870725 -0.006216832824993920 -0.001246468461789038
0.001001235361345278 -0.006471106092578852 -0.001444000706210564
0.000974048850051823 -0.006584914460813533 -0.001361810136101243
0.001029585330213807 -0.006674981454856927 -0.001531325951308159
0.000928651477207598 -0.006809648840060987 -0.001415755040288506
0.001077089512790420 -0.006801354029395091 -0.001213378087224845
0.000928046138558700 -0.006612037346564494 -0.001297031227679546
0.001083125840843530 -0.007084934263667907 -0.001376519355524006
0.001097694564327308 -0.006983155463720568 -0.001388030761437027
0.001124233996096530 -0.007007096232344865 -0.001428675571276284
0.001043094422360661 -0.006920825268774767 -0.001439951162078656
0.000959936225621879 -0.006824496792792433 -0.001495893210936839
0.001101946319125662 -0.006698548992660066 -0.001614161145644423
0.001155232461267321 -0.006825414666023852 -0.001515498846277137
0.001047359499580566 -0.006789558638068607 -0.001488476285150558
0.001227463179364067 -0.006731618848200146 -0.001579226487605653
0.001118516167061807 -0.006738401388284419 -0.001529696273179039
0.001206105185301801 -0.006668804036298315 -0.001617848003978876
0.001087987679117404 -0.006803974061575431 -0.001553683423743497
0.000777696819990135 -0.006256274090550922 -0.001247992619155412
0.001001024281104475 -0.006108778000285666 -0.001157706208958123
0.001092044348734408 -0.006103756629669297 -0.001170209723311844
0.001022397556487267 -0.006414636740581743 -0.001247819063528559
0.001131306799858971 -0.006610900756088008 -0.001296875776688220
0.000889729616566131 -0.006898535959030133 -0.001273876509802560
0.001331194023334448 -0.006477742992003102 -0.001169695374974664
0.001470457718517403 -0.006590982673034040 -0.001247275226592376
0.000956536588454873 -0.006824759022662416 -0.001196054376007281
0.001137276778851549 -0.006730661059898156 -0.001180564372721901
0.001613159771490407 -0.006567392983050595 -0.001264792233672126
0.001832348065150199 -0.006581612763822846 -0.001288871052473112
0.001674254019493448 -0.006613702643580232 -0.001291398474581820
0.001309907286669393 -0.006722233219184207 -0.001182007728187240
0.001476752772583276 -0.006671630736297171 -0.001080520751830634
0.001808865552344262 -0.006363249276014641 -0.001089911947219281
0.001974797903006565 -0.006507988175462388 -0.001274107030388837
0.002325398468479385 -0.006548815721793331 -0.001533443216961202
0.001622257915242740 -0.006525718947255274 -0.000784748883166639
0.001735054899566611 -0.006588854862045346 -0.000955437020101959
0.001816821080773460 -0.006608732259169334 -0.001112849037531981
0.001546793300280086 -0.006621154966369998 -0.000871392396016962
0.001651739779094685 -0.006464667394856544 -0.000783209352334894
0.001752440398470986 -0.006545175299646089 -0.000886901218832527
0.001659741210739620 -0.006553880473806493 -0.001072528872957952
0.001643522966376902 -0.006493083910140006 -0.000945316242960984
0.002118353189635485 -0.006532303055596022 -0.001426391831039575
0.002414375611022491 -0.006492928847011117 -0.001617668544128384
0.001730331719602038 -0.006498752049723900 -0.001356112256857563
0.001572903828232973 -0.006510167419870028 -0.001296806165669538
0.001446535910693618 -0.006503121817724416 -0.001182604902351003
0.001163118409329094 -0.006538662539201860 -0.001318157776372080
0.001500725420008734 -0.006484030560359921 -0.001134026934494275
0.000883413616723311 -0.006329805850139709 -0.001271117789329548
0.001255754348187340 -0.006467240402007295 -0.001335416080251267
0.001273809933732667 -0.006151154877901317 -0.001149873214636201
0.001081591245371221 -0.006171277794293270 -0.001212541725382230
0.000876869368797386 -0.006080496133862801 -0.001173555625349657
0.001136917812053863 -0.006183726838038914 -0.001277905373695337
0.001499888774738114 -0.006249109987026710 -0.001377846780161317
0.001500147053955143 -0.006142573236899537 -0.001297777606503951
0.001687766065974512 -0.006136521428520257 -0.001373864050616496
0.001212650368985777 -0.006616762078137349 -0.001403928976117469
0.001330330429562866 -0.006376470072834890 -0.001422336254749350
0.001451810001347059 -0.006270235663003904 -0.001410205034648814
0.001589811249928963 -0.006217339517627036 -0.001280269614804993
0.001676518271544375 -0.006192975358793407 -0.001333460383371594
0.001478673914555267 -0.006301631748565165 -0.001249927560823845
0.001593202946127813 -0.006324759546189582 -0.001277251941735117
0.001439141738134073 -0.006425029190526615 -0.001221762262538572
0.001414440635400944 -0.006402732620037393 -0.001234609131252313
0.001281118400482124 -0.006411586730750865 -0.001233488439683488
0.001310084508137785 -0.006533782458763241 -0.001262977544176030
0.001325919855896391 -0.006242033658491513 -0.001211155171266879
0.001050235306902377 -0.006104054075873903 -0.001117838486987715
0.000988407298314215 -0.006869760786649934 -0.001384175843217848
0.001047842458027361 -0.006790074919626742 -0.001266746839513216
0.001167914901157655 -0.006755813582167607 -0.001200947707615571
0.001264549320519848 -0.006706678307066120 -0.001156427262536447
0.001372582286188089 -0.006677611617836066 -0.001068840891458333
0.001463753255977703 -0.006631392180889657 -0.000983842819226271
0.001503296310592911 -0.006517035309239488 -0.000869273223680512
0.001535641402923000 -0.006497328186159509 -0.000895471535338725
0.001508484624717183 -0.006491578738227348 -0.000998867936977036
0.001422446482697946 -0.006482639873059103 -0.001125931060188178
0.001384175744412685 -0.006452937589682151 -0.001211930566422698
0.001439832593246766 -0.006329217442069378 -0.001346645540390560
0.001384920516013336 -0.006412394678642515 -0.001283885107303443
0.001193697027349152 -0.006377507268856462 -0.001162481419562771
0.001279278319936200 -0.006570626776176603 -0.001194412744426167
0.001208391524497047 -0.006644747931261342 -0.001282350521009120
0.001409006427719926 -0.006592586831020457 -0.001351459326067779
0.000944974809778419 -0.006629367426835201 -0.001409924635276863
0.001036830353515637 -0.006717078501460879 -0.001474483255851814
0.001021150290810764 -0.006698097244241646 -0.001503660434839793
0.001065565519340933 -0.006699451621621596 -0.001503777953665773
0.001038630906080342 -0.006828569106599948 -0.001477795947094782
0.001128256334458403 -0.006777180421819188 -0.001368533326139128
0.001152581057976670 -0.006641156913352380 -0.001425353532867314
0.001106857725957428 -0.006610803428268307 -0.001451507256103123
0.001117011338940037 -0.006575558031751755 -0.001455789331861416
0.001237698673707554 -0.006694205928610513 -0.001274349615406451
0.001254839003018265 -0.006599474043553257 -0.001342034192553224
0.001209772495557496 -0.006532785918605509 -0.001380366774542057
0.001230364517451111 -0.006487072780993171 -0.001405051176486121
0.001286186448435397 -0.006460989786922555 -0.001339544816614311
0.001264650729676604 -0.006493256635412665 -0.001295869681489867
0.001323179969985434 -0.006575362588222233 -0.001264539911286030
0.001322641358602624 -0.006671420553129868 -0.001208995120396343
0.001370489498572669 -0.006629556472953011 -0.001146746609178154
0.001365819516217853 -0.006545979242648748 -0.001196016435223874
0.001304285553282749 -0.006483773400056177 -0.001222791809386739
0.001313390361498304 -0.006458124193303563 -0.001260140628936506
0.001427035882324611 -0.006603465403059749 -0.001084677233958317
0.001458613232739935 -0.006508175560096378 -0.000996857581318007
0.001463815450707915 -0.006560362422527504 -0.001031231745251739
0.001448978410259288 -0.006491618755332095 -0.001045850894372965
0.001389481386058447 -0.006482259938195158 -0.001134988094940956
0.001346950046554720 -0.006475888534026935 -0.001198437846220296
0.001385437100272493 -0.006502126660505860 -0.001130912487702662
0.001349731326803052 -0.006495418176247253 -0.001173994530315181
0.001408697227921748 -0.006541202143400471 -0.001145747644757762
0.001433037596626328 -0.006528771385150766 -0.001103778509232476
0.001419551293830292 -0.006497499469896220 -0.001073905189344251
0.001436996716357884 -0.006510575631721959 -0.001062967291514693
0.002096237783202503 -0.006136837838137526 -0.001031553724201874
0.000653572792022678 0.004260548729336019 -0.002699348296808014
0.000450524564169583 0.002501967451381567 -0.002041015342276604
-0.000077669551088960 -0.007394442240259271 0.000641168184606919
0.000387377066539868 -0.007146591842847009 0.000319179053872496
0.000761995656900919 -0.006933451541757645 0.000124731497582255
0.003924491747085308 -0.006010117194529024 0.003379041699290234
0.002606420735541250 -0.002639484079963518 0.004212662326852815
0.001954534724022609 -0.002061689054650796 0.003037202159610268
0.002308982246704740 -0.002345061713346186 0.003570844533955052
0.003571776005839871 -0.005919345875523558 0.003267479424624073
0.001767258741350117 -0.001802620032606776 0.000644023028622608
0.000343225641151545 -0.008145528707473010 -0.002076803999756313
0.000130098607902868 0.001641056238034067 -0.001664527175806244
0.000063069914840294 -0.000151401223640279 0.003590650992279553
0.000326499041583898 -0.006678775314612724 -0.002369757934785856
-0.000225233155858252 0.005786388748085503 -0.001168161433807534
-0.000234985818457073 0.005805223682428636 -0.001149071695596202
-0.000231624765245756 0.005791120878307078 -0.001145315767849024
-0.000209558608646875 0.005771261478401434 -0.001181736209454414
-0.000190358513393211 0.005730364394520429 -0.001205205935961180
-0.000205999285488952 0.005721242455141377 -0.001229696517294684
-0.000224406405728226 0.005779456133488801 -0.001208547240705720
-0.000202324352170647 0.005755271039180594 -0.001237411364109612
-0.000224748627281451 0.005780282524430018 -0.001233939114849254
-0.000227083251749158 0.005794046316567852 -0.001196861629466296
-0.000012510088605909 0.000565808957288764 0.002398126359852276
0.000032394363571327 0.000266229509814838 0.003293735309249322
0.000053206302119096 0.000481229630374037 0.004569886917873603
0.000052075238328984 0.000050979750042104 0.005329954856651357
-0.000379642699721984 0.005987389171629143 -0.001708653811254193
-0.000451079091422498 -0.003255015390617462 0.007103421855416210
-0.000478800927333857 -0.003434214957929614 0.007165298683324441
0.000349099147081826 -0.001801653983734070 -0.000628286550317414
-0.000108147614978804 -0.003542845517057520 0.008721886564551397
-0.000375283273895471 -0.003206712455073303 0.006591746430349715
0.000222782419250449 -0.000710443307966320 -0.002713110188145133
-0.000004204135677434 -0.000386273866929708 0.005979072393749832
0.000048623862073551 -0.004230972191635718 0.008954171672114080
-0.000063287872171422 0.000888106452209755 -0.002601063436694318
-0.000178116282125433 -0.002859277127073357 0.006160411919784665
0.000667942121359138 -0.006090147217437262 0.005949197553150831
0.000065688385308082 -0.002009607866429499 0.004539618151556362
-0.000847765205649845 0.006193986157896440 -0.000241040122792722
-0.000762210480748950 0.006122932416708419 -0.000379684617797112
-0.000662349619070736 0.005944507209516352 -0.000274354579969350
-0.000671264729241280 0.005946002666112403 -0.000231227939101398
-0.000546006812199528 0.005766161910684441 -0.000287562361284250
-0.000561366817037864 0.005726198515344597 -0.000229917358197397
-0.000745147607355162 0.005968408526735824 -0.000364169047791553
-0.000612472665056665 0.005874534197728018 -0.000323657355904549
-0.000521978194648065 0.005707678260588009 -0.000362680403834417
-0.000532817797016670 0.005711249173234432 -0.000339812315610378
-0.000482933587174421 0.005707625873962031 -0.000385036557223581
-0.000459140118539257 0.005691499721589706 -0.000428936478426867
-0.000483854799165112 0.005543625775447442 -0.000511522247086035
-0.000422648099298218 0.005424532659643299 -0.000595929048252260
-0.000536893768654176 0.005357253985251624 -0.000585514734747749
-0.000590177557472417 0.005519315079326234 -0.000526641620584901
-0.000383802404637313 0.005679007599778618 -0.000497527337512057
-0.000421168101858122 0.005676474471014719 -0.000428883285886646
-0.000507461498780930 0.005670076211669052 -0.000357990440859946
-0.000440424060023902 0.005645140291606157 -0.000483247741104420
-0.000249758588266220 0.005639970108024860 -0.000787347300070538
-0.000275687698927856 0.005671950502736024 -0.000923129602405036
-0.000249854430186752 0.005628873010081489 -0.000787526184282901
-0.000250344954513797 0.005615890818298116 -0.000659476100231720
-0.000210320997563393 0.005672843134579235 -0.000904304650888370
-0.000288545996029289 0.005651533857828471 -0.000948437717324608
-0.000166849905511679 0.005656648745778475 -0.000867831093922769
-0.000299062231373150 0.005647936921820416 -0.000620166003466487
-0.000170884270287027 0.005682863764209236 -0.001240117994273496
-0.000273061528551678 0.005689915192982911 -0.001271993592839172
-0.000240609957370052 0.005701327119291698 -0.001228142105519819
-0.000110806114321842 0.005670331438118124 -0.001173732622396149
-0.000113810480065230 0.005690544156265191 -0.001067186134646234
-0.000203560983447519 0.005659375868856693 -0.001160993330498111
-0.000138830919859124 0.005685702859790808 -0.001183964609308099
-0.000080004138021648 0.005672122236686632 -0.001074892332624076
-0.000181449317394704 0.005655485614330625 -0.000982536876071419
-0.000248482436869627 0.005687450325794346 -0.001090777537149439
-0.000332062202592037 0.005728834088787770 -0.001181940984057614
-0.000414069880106578 0.005760809130892258 -0.001225812211884387
-0.000553447355293088 0.005589361006604900 -0.000721732322886020
-0.000373810746153438 0.005624288341555962 -0.001043687250649306
-0.000343138575674548 0.005637247510274839 -0.000970951835668481
-0.000512256600262691 0.005620578925688272 -0.000560027125446939
-0.000208376567418723 0.005686522769269446 -0.001154719949725330
-0.000235480741313304 0.005848582194355890 -0.001549810136926168
-0.000247966475448781 0.005841720982322095 -0.001517021958371923
-0.000236999419053220 0.005798911719029329 -0.001450152740108833
-0.000225902214915302 0.005774890451010593 -0.001450522139389672
-0.000531085296808067 0.005467303154820999 -0.000854375244576638
-0.000523696650581843 0.005336322342297832 -0.000836744767748680
-0.000373932080966975 0.005558704217216464 -0.001066730741371055
-0.000380338723184727 0.005596252421466458 -0.001096759439966053
-0.000289258525945587 0.005549867515775276 -0.001122224788511149
-0.000459627029955708 0.005286730223583516 -0.000870616880871952
-0.000111014777497877 0.005577039087552049 -0.001161480045194383
-0.000263245845142770 0.005786099378458033 -0.001230642446657282
-0.000254011506903618 0.005649068545956473 -0.001186270478728857
-0.000270344338019727 0.005371053701027370 -0.000996784278173943
-0.000262749076632546 0.006023111074942979 -0.001358445690136083
-0.000286860056146965 0.005930245011739351 -0.001239065108902025
-0.000217825810846250 0.006011438843927072 -0.001358656265453501
-0.000239453997243667 0.006112976180950672 -0.001411008029661481
-0.000269143897739879 0.005936500907468994 -0.001559082822809591
-0.000257669962616727 0.005899117102110764 -0.001564328075685041
-0.000240884803481356 0.005895109549978661 -0.001593112338052699
-0.000246328331548790 0.005913248138651466 -0.001583392953837517
-0.000214520323125795 0.005872661212749793 -0.001563131796512719
-0.000225046770080804 0.005884465367405068 -0.001567962965657594
-0.000213068391787118 0.005857953695702274 -0.001530859739228282
-0.000200724016315183 0.005844010722219453 -0.001511982102166494
-0.000239419900530565 0.005907564994996703 -0.001581163031146737
-0.000218382982846044 0.005903284369901201 -0.001576643128338000
-0.000228741478799316 0.005945242091731156 -0.001585054461064660
-0.000233096598412952 0.005987757032821617 -0.001594514742009285
-0.000278858165205002 0.006031952831296791 -0.001643604449540149
-0.000309799475397438 0.005945494749214299 -0.001562950309017070
-0.000289358794862635 0.005930354599276785 -0.001512289149509257
-0.000234502322291146 0.006027271806180037 -0.001638482582697832
-0.000234182470978842 0.005858753319916296 -0.001573424816684016
-0.000229378977652795 0.005853496258146154 -0.001572165465102027
-0.000225065877297682 0.005777117944256289 -0.001485914221344056
-0.000230675762873563 0.005788791125559131 -0.001482779901932924
-0.000257434337059522 0.005720477701506015 -0.001330270384056494
-0.000256672655712514 0.005717921296702045 -0.001351296969376204
-0.000211132188638674 0.005802900018391953 -0.001475426595411167
-0.000188223367812142 0.005860964720834715 -0.001552100209684059
-0.000198912278895720 0.005790229317352354 -0.001475517703833489
-0.000191008246559814 0.005781576832217448 -0.001472394347073784
-0.000157910752579335 0.005837198386926986 -0.001520478301169993
-0.000184200447025248 0.005915840287719206 -0.001593444726835702
-0.000194387237105977 0.005988744563304501 -0.001616802197346314
-0.000167921761587605 0.005923689215523599 -0.001547809617294640
-0.000202618663739504 0.006024904271987357 -0.001544805916308155
-0.000198734522900341 0.006072856293336062 -0.001636911643017548
-0.000248387738343748 0.005700326451858184 -0.001331407644613119
-0.000260728367392243 0.005698209872142157 -0.001346615907562630
-0.000377517407748929 0.005606439678183955 -0.001113227664984576
-0.000252015018832176 0.005697172009999052 -0.001310247562977861
-0.000191906370825352 0.005708638323986117 -0.001342870620750684
-0.000220062934306380 0.005923568276637761 -0.001361290908136901
-0.000179614062470853 0.005810317427655633 -0.001391953377242400
-0.000005353835097370 0.005762790761840011 -0.001279176399378252
-0.000008470376824749 0.005890324884116924 -0.001381271919301718
-0.000555762830288416 0.005614495954251355 -0.000194449966862641
-0.000559873153354698 0.005520028416673414 -0.000093960261179689
-0.000478656507379836 0.005630208596327709 -0.000291325157747267
-0.000435677779672977 0.005611388862737592 -0.000301243402933943
-0.000509653441983839 0.005569874674808636 -0.000198646760162424
-0.000526424731573456 0.005618288587567403 -0.000247619998733093
-0.000514323467105714 0.005688479675380486 -0.000330436531894410
-0.000520643630251435 0.005709970098465420 -0.000331538705885977
-0.000425590959346136 0.005712718952893416 -0.000382010177943028
-0.000477468181879492 0.005700589182284287 -0.000328310188890528
-0.000405956652183853 0.005775009117460220 -0.000355641629856351
-0.000332507728424329 0.005742646453437699 -0.000438519581976604
-0.000342449144971825 0.005735427621546715 -0.000410927512608957
-0.000411615789994789 0.005765702778815730 -0.000357325920702632
-0.000325639394321668 0.005737573454561868 -0.000443348323622708
-0.000388606747258922 0.005795369653301230 -0.000369620634426629
-0.000357523072388434 0.005774089001245110 -0.000384603292444879
-0.000320031303862027 0.005714270650633360 -0.000427537560790593
-0.000467641665523521 0.005526919966329306 -0.000195392316277398
-0.000411549953578103 0.005600306607271018 -0.000288667490063064
-0.000376122443733537 0.005553397039500724 -0.000233244233407553
-0.000415630748825036 0.005508221728895461 -0.000197578969932844
-0.000291086498689070 0.005553574070255376 -0.000316601483888403
-0.000250001369686253 0.005549920564502228 -0.000426584859811719
-0.000310773547267108 0.005562666401796300 -0.000358461073264440
-0.000321789796499823 0.005568873653649676 -0.000260800747067727
-0.000276480794005304 0.005620546368475838 -0.000350626617440626
-0.000253534377314294 0.005621402735202259 -0.000429930354434993
-0.000784094231493083 0.006507451318000761 -0.000363944205493138
-0.000887991592928518 0.006436376891629111 -0.000523172126404992
-0.000791924957560372 0.006321270377583845 -0.000089851875522847
-0.000794303539489106 0.006317353518504786 -0.000630392786244990
-0.000861408556092081 0.006082384746693341 -0.000541593327601610
-0.000473966923593288 0.005232945463201589 -0.000609930222311702
-0.000593508345455040 0.005176984337573485 -0.000660779074237773
-0.000633084866645432 0.005365878616162704 -0.000662809633128735
-0.000361420352260474 0.005052817951009088 -0.000682927010980940
-0.000541119613134825 0.005036925708592245 -0.000708127222376724
-0.000023618113862737 0.005064642917463239 -0.000971478558241293
-0.000327992637653157 0.004961470479096705 -0.000786174127996577
-0.000291909389072918 0.005127367319307043 -0.000592080061625078
-0.000145341114470203 0.004954003245473426 -0.000537983970729204
-0.000186241663034436 0.004840596292463942 -0.000679500261341766
-0.000236221352500630 0.004938603786031103 -0.000503946297277549
-0.000212256739955422 0.004715912812904139 -0.000360082616250552
-0.000232677399906200 0.004556176603040017 -0.000407301657047148
-0.000049565365068601 0.003758392113763447 -0.000810677814242967
0.000003383061864068 0.003877195798953688 -0.000733605947929779
0.000225041931462731 0.003762995422187419 -0.000760342426931922
0.000292437115622913 0.003716433277925676 -0.000876818635348663
-0.000438609510332303 0.005265695252576302 -0.000565565357638487
-0.000515195753855681 0.005756604953884436 -0.000481427479895161
-0.000469746648505125 0.005716123702545517 -0.000506693594814530
-0.000504715107453207 0.005691301123214945 -0.000330189397267103
-0.000972457238467935 0.006448650588070164 -0.000957680681833941
-0.001044898186149949 0.006192920724461909 -0.000850609490735478
-0.000990361839921939 0.006201978494953766 -0.000650037173683791
-0.001046358636500897 0.006447947388364302 -0.000696740913034525
-0.000771722356357354 0.006799414995883856 -0.001256939738336045
-0.000833567411814936 0.006630580938723390 -0.001135471826488500
-0.000968500677387432 0.006650115905186242 -0.000733641151918845
-0.000861680769776090 0.006754729783023126 -0.000717620738096114
-0.000892381183930088 0.006143654234787663 -0.001086814244238020
-0.000780856514640829 0.006340404583138541 -0.001400512094197202
-0.000689369967295967 0.006028537222946303 -0.001573318062150234
-0.000832684503514440 0.006095865834311800 -0.001223197685428088
-0.000675317751292768 0.006408375436572245 -0.001534792578950232
-0.000523390808594748 0.006212225996633937 -0.001652323409222336
-0.000305943486562808 0.004690902797659381 -0.000394550177103922
-0.000181386256337002 0.004400918166184531 -0.000192904267844600
-0.000177347245333729 0.004129910566737709 -0.000388059576783487
-0.000289527392733632 0.004137528594692309 -0.000513614573635707
-0.000356801434399144 0.005979675694156925 -0.001610734550338415
-0.000622853542485776 0.006527245668118359 -0.001682788584146804
-0.000602302876977454 0.005672274894800868 -0.001470936754221882
-0.000802079470654238 0.005583787120461261 -0.001340584455694356
-0.000826462553625934 0.005802539637826431 -0.001378464299001718
-0.000537007280758901 0.005881442374765262 -0.001542534043292030
-0.000376533693943449 0.005821754725653238 -0.001704249173784630
-0.000318101759552589 0.005950896992549906 -0.001729641785027002
-0.000513875087645735 0.005110808720331651 -0.001053612861049622
-0.000669828330150706 0.005099538592074578 -0.001366844166560088
-0.000443783697631166 0.004992317406270525 -0.001028702453678432
-0.000324988097171619 0.004911453658662294 -0.000906004738084050
-0.000541744327444416 0.005760644713177152 -0.000276355255229200
-0.000470423522436545 0.005723830261730773 -0.000283251865131621
-0.000555913007425658 0.005648265037075354 -0.000221010409717766
-0.000550049272095437 0.005665013295184597 -0.000241226491188604
-0.000624461122999544 0.005858938342546669 -0.000460344580384421
-0.000570703620654726 0.005799566870582527 -0.000355077237145621
-0.000798662678314516 0.005988466938292310 -0.000689808976066235
-0.000888043704042535 0.005988646766292939 -0.000830446187322988
-0.000836702069441173 0.005891659233178981 -0.001053483908795305
-0.000862851607636955 0.005943583225860392 -0.000936033853234416
-0.000761391551915099 0.005466537879089764 -0.001088097517008841
-0.000787120311561995 0.005628432500649222 -0.001125894313870912
-0.000297610223246536 0.004799949402247115 -0.000498066153980941
-0.000246472809735322 0.004828268605260887 -0.000669727326590637
-0.000104821557956333 0.004664835408180811 -0.000645407852326747
-0.000144371640378616 0.004553208373790754 -0.000459325524877466
-0.000170701370455783 0.004881180654897540 -0.000950880106679926
-0.000093386207604315 0.004844789353981895 -0.000762762716831414
-0.000071956046657052 0.004116635414364222 -0.000736256167369149
-0.000130796946693706 0.004279218138317900 -0.000970539067514675
0.000025157488054675 0.004224989841069983 -0.001007516502278085
-0.000029505120028491 0.004133673715157281 -0.000836131994403222
0.000166662511437290 0.004243468111145795 -0.001128942580134079
-0.000094744896138538 0.004382785609540332 -0.001132058419068968
-0.000000001698634804 0.004457665458258463 -0.001193719327306211
0.000179890098429912 0.004278528598545890 -0.001299257248967337
0.000200927443778162 0.003884595236078503 -0.001136636453898224
0.000167797902558880 0.003764853442451850 -0.000988223573642898
0.000346008863397772 0.003914144124515297 -0.001025620834674658
0.000247123618512466 0.003997824730249017 -0.001174425637091539
0.000077595349157543 0.004179058056731876 -0.000777479958024797
0.000218167302489524 0.004074397727562420 -0.001020893617228690
-0.000490515411675468 0.005026632012254272 -0.000797143371874583
-0.000412036422515700 0.004988614492722042 -0.000658842726818471
0.000372644470157017 0.003999141631673417 -0.001211906793053099
-0.000053172569797683 0.004470585167096919 -0.000895922338330160
0.000016668887944752 0.004600233975685066 -0.000955619474944643
-0.000323473580395931 0.004892653632261602 -0.001073198621026756
-0.000498819863819069 0.004970847610033804 -0.001220290806505936
-0.000332952364134731 0.005638317659661259 -0.000522958138839724
-0.000283453492185302 0.005713912077784940 -0.000414808289764927
-0.000270886160248535 0.005666541188684124 -0.000420960306122690
-0.000283044818586479 0.005653274184093815 -0.000365043039648060
